# .PCD v0.7 - Point Cloud Data file format
VERSION 0.7
FIELDS x y z rgb
SIZE 4 4 4 4
TYPE F F F U
COUNT 1 1 1 1
WIDTH 1172
HEIGHT 1
VIEWPOINT 0 0 0 1 0 0 0
POINTS 1172
DATA ascii
-0.67028475 0.32472342 1.6555792 10197915
-0.6494472 0.3247236 1.6555802 10197915
-0.63034642 0.3247239 1.6555815 10197915
-0.61124349 0.32472309 1.6555777 10197915
-0.59040654 0.3247236 1.6555802 10197915
-0.56956834 0.32472339 1.6555791 10197915
-0.54873133 0.32472387 1.6555818 10197915
-0.52963018 0.32472405 1.6555827 10197915
-0.5105285 0.3247239 1.6555818 10197915
-0.4896895 0.32472318 1.655578 10197915
-0.46885097 0.32472271 1.6555756 10197915
-0.44974977 0.32472283 1.6555761 10197915
-0.43064883 0.32472309 1.6555777 10197915
-0.40981123 0.3247233 1.6555786 10197915
-0.38897347 0.32472339 1.6555791 10197915
-0.3698723 0.32472357 1.6555799 10197915
-0.35077038 0.32472309 1.6555777 10197915
-0.32993236 0.32472292 1.6555766 10197915
-0.30909482 0.32472321 1.6555781 10197915
-0.28999391 0.32472372 1.6555808 10197915
-0.27089241 0.32472363 1.6555802 10197915
-0.25005481 0.32472393 1.6555818 10197915
-0.22921675 0.32472372 1.6555806 10197915
-0.21011524 0.32472354 1.6555799 10197915
-0.19448708 0.32472399 1.6555821 10197915
0.092034034 0.32472387 1.6555815 10197915
0.11113558 0.32472429 1.6555837 10197915
0.13023701 0.32472429 1.6555837 10197915
0.14933848 0.32472441 1.6555842 10197915
0.1701764 0.32472435 1.655584 10197915
0.19101411 0.32472399 1.6555821 10197915
0.21011576 0.32472435 1.655584 10197915
0.22921716 0.32472429 1.6555835 10197915
0.25005522 0.32472447 1.6555847 10197915
0.27089339 0.32472479 1.6555862 10197915
0.28999504 0.32472497 1.6555872 10197915
0.30909517 0.32472363 1.6555802 10197915
0.32993308 0.3247236 1.6555802 10197915
0.35077128 0.32472393 1.6555816 10197915
0.36987257 0.32472381 1.6555812 10197915
0.38897431 0.32472411 1.6555825 10197915
0.40981257 0.32472435 1.655584 10197915
0.43065012 0.32472411 1.6555825 10197915
0.44975156 0.32472411 1.6555827 10197915
0.46885285 0.32472402 1.6555821 10197915
0.48969099 0.32472417 1.6555833 10197915
0.5105297 0.3247247 1.6555856 10197915
0.52963048 0.32472426 1.6555836 10197915
0.54873258 0.32472467 1.6555854 10197915
0.56956846 0.32472351 1.6555796 10197915
0.5904063 0.32472348 1.6555794 10197915
0.61124456 0.32472366 1.6555804 10197915
0.6303463 0.32472384 1.6555815 10197915
0.64944798 0.32472399 1.655582 10197915
0.67028612 0.32472408 1.6555825 10197915
0.69112366 0.32472393 1.6555818 10197915
0.71022475 0.32472381 1.6555811 10197915
0.72932643 0.32472387 1.6555815 10197915
0.75016516 0.32472426 1.6555834 10197915
0.77100277 0.32472417 1.6555829 10197915
0.79010516 0.32472453 1.6555849 10197915
0.80920619 0.32472438 1.655584 10197915
0.83004379 0.32472426 1.6555835 10197915
0.8508811 0.32472405 1.6555824 10197915
0.86998302 0.3247242 1.6555831 10197915
0.88908547 0.32472458 1.6555853 10197915
0.90992308 0.32472447 1.6555845 10197915
0.93076175 0.3247247 1.6555858 10197915
0.94986248 0.32472447 1.6555846 10197915
0.9689613 0.32472357 1.65558 10197915
0.98979992 0.32472384 1.6555815 10197915
1.0106379 0.32472384 1.6555814 10197915
1.0297394 0.3247239 1.6555817 10197915
1.048842 0.32472426 1.6555834 10197915
1.0696802 0.32472435 1.6555839 10197915
1.0905164 0.32472384 1.6555814 10197915
1.1096178 0.32472381 1.6555812 10197915
1.1287203 0.32472414 1.6555829 10197915
1.1495575 0.32472393 1.655582 10197915
1.1703979 0.32472464 1.6555853 10197915
1.1912357 0.32472464 1.6555853 10197915
1.2103362 0.32472438 1.655584 10197915
1.2294368 0.32472411 1.6555828 10197915
1.250275 0.32472423 1.6555834 10197915
1.2711133 0.32472429 1.6555837 10197915
1.290217 0.32472485 1.6555866 10197915
1.309317 0.32472453 1.6555847 10197915
1.3301569 0.32472503 1.6555872 10197915
1.3509903 0.3247239 1.6555816 10197915
1.3700905 0.3247236 1.6555799 10197915
1.3839849 0.32472417 1.655583 10197915
-1.4023849 0.32470739 1.6733947 10197915
-1.3900975 0.32470712 1.6733932 10197915
-1.3690375 0.32470763 1.673396 10197915
-1.3497297 0.32470742 1.6733948 10197915
-1.3304261 0.32470822 1.673399 10197915
-1.3093605 0.32470736 1.6733946 10197915
-1.2900512 0.32470673 1.6733913 10197915
-1.2707431 0.32470647 1.67339 10197915
-1.2496834 0.32470706 1.6733931 10197915
-1.2303758 0.32470685 1.6733919 10197915
-1.2110707 0.32470733 1.6733946 10197915
-1.1900074 0.32470706 1.6733929 10197915
-1.1689805 0.32471684 1.6734434 10197915
-1.149688 0.32472104 1.6734651 10197915
-1.1303811 0.32472131 1.6734666 10197915
-1.1093179 0.32472125 1.6734661 10197915
-1.0900121 0.32472175 1.6734689 10197915
-1.0707036 0.3247216 1.673468 10197915
-1.0496417 0.32472193 1.6734699 10197915
-1.0303338 0.3247219 1.6734695 10197915
-1.0110242 0.32472131 1.6734666 10197915
-0.98996258 0.32472172 1.6734686 10197915
-0.96889907 0.32472166 1.6734681 10197915
-0.94959229 0.3247219 1.6734698 10197915
-0.93028527 0.32472223 1.6734713 10197915
-0.90922195 0.32472214 1.6734709 10197915
-0.88991243 0.32472152 1.6734674 10197915
-0.8706035 0.32472107 1.6734651 10197915
-0.84954065 0.3247211 1.6734654 10197915
-0.83023423 0.32472163 1.673468 10197915
-0.81092578 0.32472137 1.6734668 10197915
-0.7898643 0.32472202 1.67347 10197915
-0.7688002 0.32472157 1.6734678 10197915
-0.74949139 0.3247211 1.6734654 10197915
-0.73018479 0.3247216 1.673468 10197915
-0.70912147 0.32472149 1.6734675 10197915
-0.68981516 0.32472214 1.6734709 10197915
-0.67050678 0.3247219 1.6734694 10197915
-0.64944434 0.32472217 1.6734711 10197915
-0.63013613 0.32472196 1.6734699 10197915
-0.61082774 0.3247216 1.6734681 10197915
-0.58976555 0.32472208 1.6734705 10197915
-0.57045734 0.32472187 1.6734692 10197915
-0.55115026 0.32472229 1.6734718 10197915
-0.53008676 0.32472205 1.6734701 10197915
-0.50902444 0.3247225 1.6734728 10197915
-0.48971429 0.32472095 1.6734645 10197915
-0.47040725 0.32472143 1.673467 10197915
-0.44934425 0.32472149 1.6734673 10197915
-0.43003684 0.32472166 1.6734684 10197915
-0.4107289 0.32472154 1.6734676 10197915
-0.38966665 0.32472223 1.6734711 10197915
-0.37035829 0.32472172 1.6734686 10197915
-0.35105026 0.32472149 1.6734673 10197915
-0.32998738 0.32472166 1.6734681 10197915
-0.30892453 0.32472178 1.6734689 10197915
-0.2896173 0.32472247 1.6734724 10197915
-0.27030909 0.32472193 1.6734697 10197915
-0.2492466 0.32472268 1.6734734 10197915
-0.2299377 0.32472116 1.6734657 10197915
-0.21063016 0.32472149 1.6734675 10197915
-0.19483276 0.32472125 1.6734662 10197915
0.091273099 0.32472157 1.6734678 10197915
0.10882572 0.3247219 1.6734695 10197915
0.12988885 0.32472214 1.6734709 10197915
0.15095195 0.32472223 1.673471 10197915
0.17025968 0.32472211 1.6734707 10197915
0.18956722 0.3247216 1.6734681 10197915
0.21063054 0.32472202 1.6734701 10197915
0.22993831 0.32472205 1.6734703 10197915
0.24924631 0.32472232 1.6734718 10197915
0.27030966 0.32472265 1.6734734 10197915
0.28961727 0.32472241 1.673472 10197915
0.30892494 0.32472226 1.6734713 10197915
0.32998779 0.32472205 1.6734701 10197915
0.35105118 0.32472232 1.6734719 10197915
0.37035936 0.32472268 1.6734734 10197915
0.38966715 0.32472262 1.6734734 10197915
0.41073063 0.32472292 1.6734748 10197915
0.43003783 0.32472247 1.6734724 10197915
0.44934455 0.32472166 1.6734682 10197915
0.47040787 0.32472184 1.6734694 10197915
0.48971605 0.32472211 1.6734705 10197915
0.50902408 0.32472226 1.6734715 10197915
0.53008705 0.32472214 1.6734709 10197915
0.55115074 0.32472256 1.673473 10197915
0.57045782 0.32472214 1.6734707 10197915
0.58976549 0.32472205 1.6734706 10197915
0.61082894 0.32472226 1.6734713 10197915
0.63013697 0.32472238 1.673472 10197915
0.64944488 0.32472247 1.6734724 10197915
0.67050797 0.32472247 1.6734725 10197915
0.68981647 0.32472277 1.6734741 10197915
0.70912385 0.32472256 1.6734729 10197915
0.73018628 0.32472226 1.6734715 10197915
0.74949497 0.32472265 1.6734734 10197915
0.76880294 0.32472268 1.6734737 10197915
0.78986645 0.32472289 1.6734744 10197915
0.81093025 0.32472315 1.6734761 10197915
0.83023691 0.32472271 1.6734736 10197915
0.84954327 0.32472211 1.6734705 10197915
0.87060577 0.3247219 1.6734697 10197915
0.88991451 0.32472226 1.6734712 10197915
0.90922302 0.32472247 1.6734725 10197915
0.93028575 0.32472238 1.673472 10197915
0.94959468 0.32472277 1.673474 10197915
0.96890092 0.3247222 1.6734711 10197915
0.98996419 0.32472232 1.6734716 10197915
1.0110272 0.32472232 1.6734716 10197915
1.0303366 0.32472274 1.673474 10197915
1.0496448 0.32472289 1.6734747 10197915
1.070708 0.32472292 1.6734749 10197915
1.0900154 0.32472277 1.6734741 10197915
1.1093197 0.32472172 1.6734687 10197915
1.1303829 0.32472178 1.6734689 10197915
1.1496925 0.32472235 1.6734717 10197915
1.1689997 0.32472211 1.6734709 10197915
1.1900637 0.32472241 1.673472 10197915
1.2111274 0.32472256 1.6734729 10197915
1.2304338 0.32472223 1.6734711 10197915
1.2497417 0.3247222 1.6734711 10197915
1.2708048 0.32472223 1.6734711 10197915
1.2901146 0.32472271 1.6734737 10197915
1.3094213 0.32472244 1.6734723 10197915
1.3304856 0.32472274 1.6734737 10197915
1.3497943 0.32472295 1.6734749 10197915
1.3690995 0.32472232 1.6734718 10197915
1.3901639 0.32472265 1.6734734 10197915
1.402455 0.3247236 1.6734784 10197915
-1.4106036 0.32470497 1.6916707 10197915
-1.3910881 0.32470557 1.6916736 10197915
-1.3697953 0.32470539 1.6916729 10197915
-1.3502753 0.32470483 1.6916698 10197915
-1.3307593 0.32470527 1.6916722 10197915
-1.3094672 0.32470533 1.6916723 10197915
-1.2899492 0.32470521 1.691672 10197915
-1.2704337 0.32470578 1.6916748 10197915
-1.2491422 0.32470599 1.691676 10197915
-1.2296244 0.32470599 1.6916759 10197915
-1.2101008 0.32470441 1.6916677 10197915
-1.1906149 0.32471317 1.6917133 10197915
-1.1711196 0.32471946 1.6917461 10197915
-1.149826 0.3247194 1.6917458 10197915
-1.1303085 0.32471973 1.6917474 10197915
-1.1107898 0.32471967 1.6917473 10197915
-1.0894971 0.32471985 1.691748 10197915
-1.0699787 0.32471991 1.6917484 10197915
-1.050459 0.32471958 1.6917467 10197915
-1.0291659 0.32471955 1.6917467 10197915
-1.0096483 0.32471994 1.6917484 10197915
-0.99012989 0.32472 1.6917491 10197915
-0.97061241 0.32472044 1.6917511 10197915
-0.95109349 0.32472035 1.6917509 10197915
-0.92979699 0.32471919 1.6917444 10197915
-0.9102791 0.32471943 1.691746 10197915
-0.89075941 0.32471907 1.691744 10197915
-0.8694675 0.32471952 1.6917464 10197915
-0.84994972 0.32471985 1.691748 10197915
-0.83043224 0.32472035 1.6917506 10197915
-0.80913782 0.32471982 1.6917478 10197915
-0.78961897 0.32471973 1.6917473 10197915
-0.77010018 0.3247197 1.6917473 10197915
-0.7505824 0.32472005 1.691749 10197915
-0.7310648 0.3247205 1.6917518 10197915
-0.70977098 0.32472017 1.6917497 10197915
-0.69025308 0.32472056 1.6917521 10197915
-0.67073327 0.32472008 1.6917495 10197915
-0.64944059 0.32472029 1.6917505 10197915
-0.62992144 0.32472005 1.6917492 10197915
-0.610403 0.32472017 1.6917499 10197915
-0.58911037 0.32472047 1.6917515 10197915
-0.5695923 0.32472083 1.6917534 10197915
-0.55007273 0.32472035 1.691751 10197915
-0.53055316 0.32471979 1.6917479 10197915
-0.51103431 0.3247197 1.6917473 10197915
-0.4897418 0.32472011 1.6917496 10197915
-0.47022325 0.3247202 1.6917499 10197915
-0.45070431 0.32472 1.691749 10197915
-0.42941186 0.32472053 1.6917518 10197915
-0.40989265 0.32472014 1.6917496 10197915
-0.39037371 0.32471994 1.6917486 10197915
-0.36908054 0.32471988 1.6917483 10197915
-0.34956232 0.32472032 1.6917505 10197915
-0.33004403 0.32472074 1.6917528 10197915
-0.31052491 0.32472032 1.6917508 10197915
-0.29100636 0.3247205 1.6917516 10197915
-0.2697129 0.32472011 1.6917496 10197915
-0.25019386 0.3247197 1.6917473 10197915
-0.23067529 0.32471988 1.6917483 10197915
-0.20938222 0.32471988 1.6917483 10197915
-0.19518659 0.32471952 1.6917465 10197915
0.092270315 0.32472053 1.6917518 10197915
0.11001457 0.32472041 1.691751 10197915
0.12953322 0.32472029 1.6917503 10197915
0.14905189 0.32472017 1.6917499 10197915
0.17034508 0.32472035 1.6917509 10197915
0.18986389 0.32472053 1.6917517 10197915
0.2093827 0.32472062 1.691752 10197915
0.23067589 0.32472065 1.6917523 10197915
0.25019464 0.32472068 1.6917524 10197915
0.26971295 0.32472023 1.69175 10197915
0.29100564 0.3247197 1.6917473 10197915
0.31052488 0.32472032 1.6917505 10197915
0.33004338 0.32472008 1.6917492 10197915
0.34956193 0.32471994 1.6917486 10197915
0.36908117 0.32472041 1.6917511 10197915
0.39037421 0.32472038 1.6917509 10197915
0.40989295 0.32472035 1.6917508 10197915
0.42941153 0.32472026 1.6917502 10197915
0.45070466 0.32472029 1.6917505 10197915
0.47022325 0.3247202 1.6917499 10197915
0.48974249 0.32472053 1.6917516 10197915
0.51103628 0.32472095 1.6917539 10197915
0.53055465 0.32472074 1.6917527 10197915
0.55007261 0.32472029 1.6917504 10197915
0.56959152 0.32472044 1.6917511 10197915
0.58911067 0.32472062 1.6917521 10197915
0.61040443 0.32472095 1.6917539 10197915
0.62992281 0.3247208 1.691753 10197915
0.6494419 0.32472092 1.6917539 10197915
0.67073375 0.32472035 1.6917505 10197915
0.69025159 0.32471991 1.6917484 10197915
0.70977098 0.3247202 1.69175 10197915
0.73106474 0.3247205 1.6917515 10197915
0.75058389 0.32472068 1.6917522 10197915
0.77010328 0.32472101 1.691754 10197915
0.78962123 0.32472065 1.6917524 10197915
0.80913925 0.32472038 1.6917509 10197915
0.83043331 0.32472071 1.6917528 10197915
0.84995174 0.32472056 1.6917521 10197915
0.86947125 0.32472086 1.6917535 10197915
0.89076418 0.3247208 1.691753 10197915
0.91028345 0.32472101 1.6917541 10197915
0.92980295 0.32472128 1.6917557 10197915
0.95109177 0.32471976 1.6917477 10197915
0.97061235 0.32472038 1.6917509 10197915
0.99013025 0.32472014 1.6917497 10197915
1.0096501 0.3247205 1.6917515 10197915
1.0291698 0.32472077 1.691753 10197915
1.0504627 0.32472074 1.6917528 10197915
1.0699816 0.3247208 1.691753 10197915
1.0894984 0.32472023 1.69175 10197915
1.1107935 0.32472077 1.6917528 10197915
1.1303118 0.32472068 1.6917527 10197915
1.1498308 0.32472074 1.6917526 10197915
1.1711247 0.32472092 1.6917539 10197915
1.1906435 0.32472101 1.6917541 10197915
1.2101623 0.32472095 1.6917539 10197915
1.2296808 0.32472089 1.6917536 10197915
1.2491992 0.32472083 1.691753 10197915
1.2704936 0.32472113 1.6917548 10197915
1.2900126 0.32472119 1.6917553 10197915
1.3095325 0.32472152 1.6917567 10197915
1.3308266 0.32472172 1.6917578 10197915
1.3503392 0.3247202 1.6917502 10197915
1.3698592 0.32472053 1.6917518 10197915
1.3893782 0.32472056 1.6917518 10197915
1.4088974 0.32472068 1.6917526 10197915
-1.4279776 0.32470345 1.7103549 10197915
-1.4100393 0.32470369 1.7103564 10197915
-1.3903053 0.32470357 1.7103558 10197915
-1.3705705 0.32470319 1.7103537 10197915
-1.3490449 0.32470366 1.7103562 10197915
-1.3293114 0.32470357 1.7103558 10197915
-1.3095783 0.32470366 1.7103559 10197915
-1.2898445 0.32470354 1.7103555 10197915
-1.2701135 0.32470414 1.7103587 10197915
-1.2503792 0.32470393 1.7103577 10197915
-1.2306427 0.32470307 1.7103533 10197915
-1.2091426 0.32471043 1.7103919 10197915
-1.1894354 0.32471767 1.7104299 10197915
-1.1697031 0.32471821 1.7104329 10197915
-1.1499676 0.32471782 1.7104307 10197915
-1.1302356 0.32471845 1.7104343 10197915
-1.1105007 0.3247183 1.7104332 10197915
-1.0907665 0.32471836 1.7104336 10197915
-1.0692358 0.32471761 1.7104295 10197915
-1.0495011 0.3247174 1.7104288 10197915
-1.0297681 0.32471785 1.7104311 10197915
-1.0100338 0.32471782 1.7104307 10197915
-0.99030018 0.32471797 1.7104317 10197915
-0.97056657 0.32471818 1.7104328 10197915
-0.95083064 0.32471761 1.7104297 10197915
-0.92930335 0.32471797 1.7104317 10197915
-0.90956879 0.32471785 1.7104309 10197915
-0.8898356 0.32471821 1.710433 10197915
-0.87010098 0.32471812 1.7104323 10197915
-0.85036826 0.32471868 1.7104353 10197915
-0.83063328 0.32471842 1.710434 10197915
-0.81089669 0.32471749 1.7104291 10197915
-0.78936964 0.324718 1.7104317 10197915
-0.7696346 0.32471761 1.7104298 10197915
-0.74990106 0.32471794 1.7104312 10197915
-0.73016655 0.32471779 1.7104305 10197915
-0.71043378 0.32471848 1.7104344 10197915
-0.6906991 0.3247183 1.7104332 10197915
-0.67096347 0.32471764 1.7104297 10197915
-0.64943612 0.32471809 1.7104321 10197915
-0.6297015 0.32471782 1.7104309 10197915
-0.60996813 0.32471833 1.7104335 10197915
-0.59023458 0.32471868 1.7104353 10197915
-0.57050008 0.32471856 1.7104349 10197915
-0.5489713 0.32471836 1.7104334 10197915
-0.52923524 0.32471719 1.7104275 10197915
-0.50950211 0.32471788 1.7104311 10197915
-0.48976773 0.32471782 1.7104309 10197915
-0.47003353 0.32471782 1.710431 10197915
-0.4502995 0.32471797 1.7104317 10197915
-0.43056607 0.32471862 1.7104349 10197915
-0.40903687 0.32471785 1.710431 10197915
-0.38930291 0.32471812 1.7104323 10197915
-0.36956868 0.32471809 1.7104324 10197915
-0.34983417 0.32471791 1.7104311 10197915
-0.33010063 0.32471851 1.7104346 10197915
-0.3103663 0.32471853 1.7104343 10197915
-0.29063222 0.32471868 1.7104353 10197915
-0.26910353 0.32471824 1.710433 10197915
-0.24936929 0.3247183 1.7104332 10197915
-0.22963504 0.32471833 1.7104334 10197915
-0.20990117 0.32471895 1.7104366 10197915
-0.19734259 0.32471827 1.7104331 10197915
0.093289517 0.32471928 1.7104384 10197915
0.10943578 0.32471925 1.7104385 10197915
0.12916997 0.32471898 1.7104368 10197915
0.15069795 0.32471821 1.7104329 10197915
0.17043234 0.32471848 1.7104343 10197915
0.19016658 0.32471836 1.7104338 10197915
0.20990101 0.32471862 1.7104352 10197915
0.22963534 0.32471874 1.7104355 10197915
0.24936974 0.32471889 1.7104365 10197915
0.26910409 0.32471895 1.7104367 10197915
0.29063213 0.32471862 1.7104349 10197915
0.31036648 0.32471868 1.7104355 10197915
0.3301008 0.32471874 1.7104357 10197915
0.34983534 0.32471898 1.7104371 10197915
0.36957002 0.32471928 1.7104384 10197915
0.3893041 0.3247191 1.7104375 10197915
0.40903738 0.3247183 1.7104334 10197915
0.43056527 0.32471803 1.7104317 10197915
0.45030031 0.32471856 1.7104347 10197915
0.47003487 0.32471874 1.7104355 10197915
0.48976874 0.32471848 1.7104343 10197915
0.50950384 0.32471901 1.7104369 10197915
0.52923793 0.32471886 1.7104362 10197915
0.54897141 0.32471839 1.7104338 10197915
0.5705002 0.32471868 1.7104353 10197915
0.59023422 0.32471853 1.7104346 10197915
0.6099695 0.32471904 1.7104369 10197915
0.62970328 0.32471877 1.7104359 10197915
0.64943838 0.32471916 1.7104379 10197915
0.67096645 0.32471904 1.7104374 10197915
0.6906985 0.32471803 1.7104318 10197915
0.7104333 0.32471827 1.7104331 10197915
0.73016894 0.32471886 1.7104362 10197915
0.74990243 0.32471851 1.7104346 10197915
0.76963723 0.32471877 1.7104356 10197915
0.78937262 0.32471919 1.7104381 10197915
0.81089967 0.32471868 1.7104353 10197915
0.83063447 0.32471889 1.7104365 10197915
0.8503682 0.32471868 1.7104353 10197915
0.87010288 0.32471877 1.7104359 10197915
0.88983822 0.32471919 1.7104379 10197915
0.90957278 0.32471931 1.7104387 10197915
0.92930764 0.32471943 1.7104393 10197915
0.9508335 0.32471862 1.7104349 10197915
0.97056675 0.32471824 1.710433 10197915
0.99030226 0.32471865 1.7104353 10197915
1.0100362 0.32471853 1.7104347 10197915
1.0297713 0.32471874 1.7104359 10197915
1.0495059 0.32471895 1.7104368 10197915
1.0692403 0.32471895 1.7104367 10197915
1.0907677 0.32471862 1.7104353 10197915
1.1105021 0.32471874 1.7104355 10197915
1.1302366 0.3247188 1.7104359 10197915
1.1499708 0.32471874 1.7104356 10197915
1.1697062 0.32471907 1.7104373 10197915
1.1894419 0.32471946 1.7104393 10197915
1.2091762 0.32471943 1.7104393 10197915
1.2307003 0.32471827 1.7104331 10197915
1.2504343 0.32471824 1.710433 10197915
1.2701693 0.32471842 1.7104338 10197915
1.2899051 0.3247188 1.7104361 10197915
1.3096393 0.3247188 1.7104359 10197915
1.3293741 0.32471889 1.7104365 10197915
1.3491088 0.32471901 1.7104372 10197915
1.3706356 0.32471868 1.7104353 10197915
1.3903712 0.32471898 1.7104371 10197915
1.4101049 0.32471877 1.710436 10197915
1.4280462 0.32471904 1.7104372 10197915
-1.4457394 0.32470185 1.7294565 10197915
-1.4294101 0.32470104 1.7294521 10197915
-1.4094572 0.32470116 1.7294531 10197915
-1.3895053 0.32470164 1.7294555 10197915
-1.3695509 0.32470149 1.7294548 10197915
-1.3495973 0.32470149 1.7294549 10197915
-1.3296448 0.32470179 1.7294563 10197915
-1.3096908 0.32470176 1.7294559 10197915
-1.2897372 0.32470179 1.7294563 10197915
-1.2697827 0.32470155 1.729455 10197915
-1.2498293 0.32470164 1.7294556 10197915
-1.2299032 0.32470897 1.7294947 10197915
-1.2099771 0.32471651 1.7295349 10197915
-1.1900213 0.32471618 1.7295331 10197915
-1.1700698 0.32471707 1.7295377 10197915
-1.1501142 0.32471678 1.7295361 10197915
-1.1301551 0.32471552 1.7295296 10197915
-1.110203 0.32471621 1.7295333 10197915
-1.0902469 0.32471579 1.729531 10197915
-1.0702932 0.32471603 1.7295322 10197915
-1.0503395 0.32471633 1.7295338 10197915
-1.0303848 0.3247163 1.7295338 10197915
-1.0104313 0.32471675 1.7295358 10197915
-0.99047512 0.32471618 1.7295331 10197915
-0.97051972 0.32471594 1.7295319 10197915
-0.95056611 0.3247163 1.7295336 10197915
-0.93061334 0.32471693 1.729537 10197915
-0.91065782 0.32471666 1.7295355 10197915
-0.89070302 0.3247166 1.7295351 10197915
-0.87074965 0.32471707 1.7295376 10197915
-0.85079134 0.32471567 1.7295303 10197915
-0.83083755 0.32471597 1.7295321 10197915
-0.80906957 0.32471624 1.7295336 10197915
-0.78911352 0.32471567 1.7295303 10197915
-0.76916116 0.32471663 1.7295355 10197915
-0.74920708 0.32471687 1.7295368 10197915
-0.72925085 0.32471618 1.7295331 10197915
-0.70929629 0.32471618 1.7295332 10197915
-0.68934172 0.32471621 1.7295331 10197915
-0.66938722 0.32471627 1.7295336 10197915
-0.64943415 0.32471707 1.7295376 10197915
-0.62947857 0.3247166 1.7295351 10197915
-0.60952407 0.32471666 1.7295357 10197915
-0.58956897 0.32471645 1.7295344 10197915
-0.56961346 0.32471597 1.7295318 10197915
-0.54965889 0.324716 1.729532 10197915
-0.52970469 0.32471624 1.7295333 10197915
-0.50975019 0.32471627 1.7295338 10197915
-0.48979545 0.32471624 1.7295332 10197915
-0.46984166 0.32471684 1.7295364 10197915
-0.44988677 0.32471666 1.7295356 10197915
-0.42993146 0.32471618 1.729533 10197915
-0.40997747 0.32471669 1.7295357 10197915
-0.39002231 0.32471624 1.7295332 10197915
-0.37006775 0.3247163 1.7295337 10197915
-0.35011429 0.32471743 1.7295396 10197915
-0.33015892 0.32471678 1.7295361 10197915
-0.31020361 0.32471603 1.7295322 10197915
-0.29024899 0.32471606 1.7295322 10197915
-0.27029428 0.32471597 1.7295319 10197915
-0.2503399 0.32471624 1.7295332 10197915
-0.23038557 0.32471672 1.7295357 10197915
-0.21043068 0.32471633 1.7295338 10197915
-0.19773273 0.32471704 1.7295376 10197915
0.094331063 0.32471654 1.729535 10197915
0.11065765 0.32471672 1.7295357 10197915
0.13061239 0.32471696 1.729537 10197915
0.15056701 0.32471675 1.7295361 10197915
0.1705219 0.32471722 1.7295386 10197915
0.19047649 0.32471707 1.7295377 10197915
0.21043122 0.32471713 1.7295381 10197915
0.23038611 0.32471746 1.7295399 10197915
0.25033996 0.32471633 1.7295338 10197915
0.27029446 0.32471618 1.729533 10197915
0.29024944 0.32471657 1.729535 10197915
0.31020442 0.32471693 1.7295368 10197915
0.3301591 0.3247169 1.7295369 10197915
0.35011381 0.32471693 1.729537 10197915
0.37006855 0.32471702 1.7295376 10197915
0.39002293 0.32471678 1.7295361 10197915
0.40997791 0.32471702 1.7295375 10197915
0.42993265 0.3247171 1.7295377 10197915
0.44988713 0.32471693 1.7295369 10197915
0.46984291 0.32471767 1.7295408 10197915
0.48979768 0.3247177 1.7295412 10197915
0.5097506 0.3247166 1.7295353 10197915
0.52970535 0.32471666 1.7295357 10197915
0.54966003 0.32471666 1.7295357 10197915
0.56961477 0.32471669 1.7295357 10197915
0.58957022 0.32471713 1.7295382 10197915
0.60952479 0.3247171 1.7295378 10197915
0.62947953 0.32471707 1.729538 10197915
0.64943326 0.3247166 1.7295355 10197915
0.66938829 0.32471684 1.7295364 10197915
0.68934292 0.32471681 1.7295364 10197915
0.70929849 0.32471719 1.7295386 10197915
0.72925359 0.3247174 1.7295395 10197915
0.7492072 0.32471693 1.729537 10197915
0.76916337 0.32471755 1.7295403 10197915
0.79093003 0.32471669 1.7295359 10197915
0.81088382 0.32471636 1.7295339 10197915
0.83083934 0.32471666 1.7295357 10197915
0.85079384 0.32471666 1.7295357 10197915
0.870749 0.32471681 1.7295364 10197915
0.89070576 0.32471758 1.7295406 10197915
0.91065949 0.32471719 1.7295384 10197915
0.93061179 0.32471642 1.7295341 10197915
0.95056826 0.32471702 1.7295375 10197915
0.97052366 0.32471725 1.7295387 10197915
0.99047798 0.3247171 1.729538 10197915
1.0104328 0.32471713 1.7295382 10197915
1.030389 0.32471761 1.7295407 10197915
1.0503435 0.32471758 1.7295405 10197915
1.0702937 0.32471621 1.7295332 10197915
1.0902503 0.32471675 1.7295361 10197915
1.1102043 0.32471657 1.7295351 10197915
1.1301597 0.32471687 1.7295367 10197915
1.1501155 0.32471719 1.7295383 10197915
1.1700691 0.32471687 1.7295367 10197915
1.1900256 0.32471731 1.7295393 10197915
1.2099782 0.32471681 1.7295363 10197915
1.2299329 0.32471681 1.7295364 10197915
1.2498887 0.3247171 1.729538 10197915
1.2698442 0.32471731 1.7295389 10197915
1.2897996 0.32471746 1.7295399 10197915
1.3097552 0.3247177 1.7295412 10197915
1.3297069 0.32471699 1.7295372 10197915
1.3496603 0.32471666 1.7295355 10197915
1.3696166 0.32471707 1.7295376 10197915
1.3895713 0.32471707 1.7295376 10197915
1.4095261 0.32471707 1.7295377 10197915
1.429481 0.32471716 1.7295381 10197915
1.4458104 0.32471776 1.7295417 10197915
-1.4639063 0.32470101 1.7489941 10197915
-1.449223 0.32469931 1.7489849 10197915
-1.4290445 0.32469946 1.7489856 10197915
-1.410701 0.3246997 1.748987 10197915
-1.3905224 0.32469985 1.7489876 10197915
-1.3703432 0.32469979 1.7489874 10197915
-1.3501655 0.32470012 1.7489892 10197915
-1.3299872 0.3247003 1.7489903 10197915
-1.3098072 0.32470015 1.7489892 10197915
-1.2896247 0.32469925 1.7489846 10197915
-1.2694482 0.32469988 1.748988 10197915
-1.249303 0.32470873 1.7490356 10197915
-1.2309793 0.32471436 1.749066 10197915
-1.2107998 0.32471451 1.7490665 10197915
-1.1906204 0.32471466 1.7490675 10197915
-1.1704415 0.32471499 1.7490692 10197915
-1.150259 0.3247143 1.7490654 10197915
-1.1300801 0.32471457 1.7490669 10197915
-1.1098993 0.32471436 1.7490658 10197915
-1.0897204 0.32471469 1.7490677 10197915
-1.0695413 0.32471499 1.7490692 10197915
-1.0493618 0.32471511 1.7490698 10197915
-1.0291822 0.32471526 1.7490709 10197915
-1.0108342 0.32471442 1.7490664 10197915
-0.99065286 0.324714 1.7490641 10197915
-0.97047502 0.32471472 1.7490679 10197915
-0.95029378 0.32471433 1.7490658 10197915
-0.93011391 0.32471433 1.7490658 10197915
-0.90993524 0.32471478 1.7490684 10197915
-0.8897559 0.32471508 1.7490696 10197915
-0.86957365 0.32471418 1.749065 10197915
-0.84939206 0.32471356 1.7490618 10197915
-0.8292138 0.32471424 1.7490653 10197915
-0.80903423 0.32471445 1.7490664 10197915
-0.7906884 0.32471424 1.7490654 10197915
-0.77050906 0.32471457 1.7490669 10197915
-0.75032908 0.32471454 1.7490669 10197915
-0.73014873 0.32471439 1.749066 10197915
-0.70996875 0.32471436 1.7490661 10197915
-0.68978816 0.32471415 1.7490648 10197915
-0.66960937 0.32471466 1.7490677 10197915
-0.6494289 0.32471445 1.7490664 10197915
-0.62924975 0.32471487 1.7490686 10197915
-0.61090517 0.32471538 1.7490714 10197915
-0.59072292 0.32471415 1.7490648 10197915
-0.57054281 0.32471409 1.7490647 10197915
-0.55036312 0.32471427 1.7490653 10197915
-0.53018337 0.32471439 1.7490661 10197915
-0.51000363 0.32471457 1.7490669 10197915
-0.48982349 0.32471448 1.7490664 10197915
-0.46964392 0.32471475 1.7490681 10197915
-0.44946361 0.32471448 1.7490667 10197915
-0.42928311 0.32471415 1.7490648 10197915
-0.40910369 0.32471457 1.7490669 10197915
-0.39075819 0.32471454 1.7490669 10197915
-0.37057829 0.32471466 1.7490674 10197915
-0.35039896 0.32471529 1.7490709 10197915
-0.3302187 0.32471505 1.7490697 10197915
-0.31003794 0.3247143 1.7490656 10197915
-0.28985766 0.32471398 1.7490638 10197915
-0.26967797 0.32471427 1.7490656 10197915
-0.2494982 0.32471457 1.7490672 10197915
-0.22931853 0.32471499 1.7490695 10197915
-0.21097276 0.3247146 1.7490673 10197915
-0.19996607 0.32471555 1.7490723 10197915
0.093561865 0.32471475 1.7490679 10197915
0.11007285 0.32471493 1.7490689 10197915
0.13025299 0.3247152 1.7490704 10197915
0.15043296 0.32471505 1.7490696 10197915
0.17061308 0.32471523 1.7490708 10197915
0.19079323 0.32471541 1.7490716 10197915
0.21097353 0.32471579 1.7490734 10197915
0.22931874 0.32471535 1.7490714 10197915
0.24949813 0.32471445 1.7490665 10197915
0.26967829 0.32471463 1.7490675 10197915
0.28985843 0.32471487 1.7490684 10197915
0.3100386 0.32471496 1.7490692 10197915
0.33021867 0.32471505 1.7490696 10197915
0.35039881 0.32471514 1.7490702 10197915
0.37057891 0.3247152 1.7490705 10197915
0.39075881 0.32471508 1.7490698 10197915
0.40910426 0.32471505 1.7490696 10197915
0.42928466 0.32471535 1.7490711 10197915
0.4494645 0.3247152 1.7490704 10197915
0.46964493 0.32471547 1.7490717 10197915
0.48982567 0.32471591 1.7490743 10197915
0.51000482 0.32471529 1.749071 10197915
0.53018367 0.32471451 1.7490669 10197915
0.55036396 0.32471475 1.7490681 10197915
0.57054454 0.32471508 1.7490698 10197915
0.59072489 0.32471526 1.7490706 10197915
0.61090469 0.32471511 1.7490699 10197915
0.62925065 0.32471538 1.7490715 10197915
0.64943093 0.32471547 1.749072 10197915
0.66960979 0.3247149 1.7490689 10197915
0.68979055 0.32471523 1.7490706 10197915
0.70997047 0.3247152 1.7490704 10197915
0.73015112 0.32471541 1.7490717 10197915
0.750332 0.32471579 1.7490737 10197915
0.7705121 0.32471582 1.7490739 10197915
0.79069114 0.32471541 1.7490715 10197915
0.80903465 0.32471457 1.7490671 10197915
0.82921505 0.32471475 1.7490679 10197915
0.84939659 0.32471532 1.7490711 10197915
0.86957592 0.32471505 1.7490697 10197915
0.88975632 0.32471517 1.7490704 10197915
0.90993714 0.3247155 1.7490721 10197915
0.93011743 0.32471555 1.7490723 10197915
0.95029622 0.32471511 1.74907 10197915
0.97047603 0.32471505 1.7490698 10197915
0.99065757 0.32471552 1.7490722 10197915
1.0108376 0.32471552 1.7490723 10197915
1.0291835 0.32471561 1.7490727 10197915
1.0493641 0.32471582 1.7490739 10197915
1.0695426 0.32471538 1.7490714 10197915
1.0897208 0.32471481 1.7490684 10197915
1.1099021 0.3247152 1.7490704 10197915
1.1300814 0.32471493 1.7490689 10197915
1.1502638 0.32471555 1.7490727 10197915
1.1704429 0.32471535 1.7490712 10197915
1.1906235 0.32471552 1.7490723 10197915
1.2108036 0.32471558 1.7490722 10197915
1.2309827 0.32471526 1.7490708 10197915
1.2493284 0.32471532 1.7490711 10197915
1.2695092 0.3247155 1.7490721 10197915
1.28969 0.3247157 1.7490733 10197915
1.3098708 0.32471588 1.7490743 10197915
1.3300518 0.32471609 1.7490753 10197915
1.3502272 0.32471499 1.7490693 10197915
1.3704081 0.32471514 1.7490704 10197915
1.3905886 0.32471529 1.749071 10197915
1.4107684 0.32471523 1.7490705 10197915
1.4291165 0.32471582 1.7490737 10197915
1.4492959 0.32471564 1.7490729 10197915
1.4639736 0.32471594 1.7490745 10197915
-1.4824741 0.32469708 1.7689612 10197915
-1.469489 0.3246977 1.7689644 10197915
-1.4490808 0.324698 1.7689663 10197915
-1.4305269 0.32469803 1.7689663 10197915
-1.4101175 0.32469809 1.7689667 10197915
-1.3897109 0.32469881 1.7689705 10197915
-1.3692995 0.32469842 1.7689685 10197915
-1.3488871 0.32469767 1.7689644 10197915
-1.3303356 0.32469839 1.7689682 10197915
-1.3099254 0.32469824 1.7689673 10197915
-1.2895154 0.32469815 1.7689669 10197915
-1.2709839 0.32470393 1.7689985 10197915
-1.2506074 0.3247126 1.7690457 10197915
-1.2301967 0.32471257 1.7690455 10197915
-1.2097869 0.32471272 1.7690463 10197915
-1.1893756 0.32471251 1.7690452 10197915
-1.1708208 0.32471257 1.7690456 10197915
-1.1504096 0.3247124 1.7690445 10197915
-1.1300011 0.32471299 1.7690477 10197915
-1.1095902 0.32471284 1.7690468 10197915
-1.0891798 0.32471287 1.7690471 10197915
-1.0706272 0.32471365 1.7690513 10197915
-1.0502117 0.3247121 1.7690428 10197915
-1.0298017 0.32471222 1.7690437 10197915
-1.0093911 0.32471225 1.7690436 10197915
-0.98898256 0.32471284 1.769047 10197915
-0.97042704 0.32471269 1.7690461 10197915
-0.95001674 0.32471275 1.7690464 10197915
-0.92960656 0.32471284 1.7690471 10197915
-0.91105044 0.32471249 1.7690451 10197915
-0.8906402 0.32471254 1.7690454 10197915
-0.87023085 0.32471302 1.769048 10197915
-0.84981996 0.32471287 1.7690471 10197915
-0.82940972 0.32471302 1.7690477 10197915
-0.81085527 0.32471326 1.7690493 10197915
-0.79044467 0.32471323 1.769049 10197915
-0.77003109 0.32471189 1.769042 10197915
-0.74962187 0.32471243 1.7690448 10197915
-0.72921193 0.32471269 1.7690461 10197915
-0.71065664 0.32471257 1.7690456 10197915
-0.69024634 0.32471266 1.7690459 10197915
-0.6698364 0.3247129 1.7690474 10197915
-0.64942557 0.32471278 1.7690468 10197915
-0.62901437 0.32471243 1.7690449 10197915
-0.61046034 0.32471293 1.7690474 10197915
-0.59004939 0.32471269 1.7690463 10197915
-0.56963921 0.3247129 1.7690474 10197915
-0.551085 0.32471341 1.76905 10197915
-0.53067404 0.32471311 1.7690486 10197915
-0.51026314 0.32471293 1.7690474 10197915
-0.4898515 0.32471216 1.7690433 10197915
-0.46944159 0.32471257 1.7690455 10197915
-0.45088649 0.32471246 1.7690451 10197915
-0.43047598 0.32471251 1.7690454 10197915
-0.41006613 0.32471305 1.7690481 10197915
-0.38965559 0.32471299 1.7690479 10197915
-0.36924481 0.32471278 1.7690465 10197915
-0.35068914 0.32471219 1.7690433 10197915
-0.33027855 0.32471207 1.7690428 10197915
-0.30986816 0.32471213 1.7690432 10197915
-0.28945825 0.32471272 1.7690464 10197915
-0.26904756 0.32471254 1.7690455 10197915
-0.25049266 0.32471272 1.7690464 10197915
-0.23008209 0.3247126 1.7690458 10197915
-0.20967147 0.32471246 1.7690451 10197915
0.094630562 0.32471272 1.7690463 10197915
0.10947468 0.32471305 1.7690481 10197915
0.12988539 0.3247135 1.7690505 10197915
0.15029591 0.32471338 1.76905 10197915
0.1707065 0.32471344 1.7690501 10197915
0.19111718 0.32471368 1.7690516 10197915
0.2096715 0.32471249 1.7690451 10197915
0.23008226 0.32471284 1.7690471 10197915
0.25049272 0.32471281 1.7690468 10197915
0.2690478 0.32471284 1.7690471 10197915
0.28945863 0.3247132 1.769049 10197915
0.30986923 0.32471329 1.7690494 10197915
0.33028004 0.32471353 1.7690507 10197915
0.35069019 0.32471314 1.7690487 10197915
0.36924511 0.32471308 1.7690483 10197915
0.3896561 0.32471341 1.76905 10197915
0.4100669 0.32471356 1.7690512 10197915
0.4304775 0.32471362 1.7690512 10197915
0.45088863 0.324714 1.7690535 10197915
0.46944341 0.3247138 1.7690523 10197915
0.48985282 0.32471305 1.7690481 10197915
0.51026356 0.32471314 1.7690485 10197915
0.5306738 0.32471296 1.7690477 10197915
0.55108476 0.32471323 1.769049 10197915
0.56964046 0.32471362 1.7690512 10197915
0.59005052 0.32471332 1.7690496 10197915
0.61046177 0.32471365 1.7690518 10197915
0.6290158 0.32471314 1.7690487 10197915
0.64942664 0.32471332 1.7690495 10197915
0.66983753 0.32471347 1.7690506 10197915
0.69024867 0.32471374 1.7690519 10197915
0.71065933 0.3247138 1.7690521 10197915
0.72921449 0.32471386 1.7690523 10197915
0.74962538 0.32471398 1.769053 10197915
0.77003479 0.32471347 1.7690506 10197915
0.79044396 0.3247129 1.7690473 10197915
0.81085473 0.32471299 1.769048 10197915
0.82941133 0.32471362 1.7690512 10197915
0.84982115 0.32471335 1.7690496 10197915
0.8702324 0.32471356 1.769051 10197915
0.89064312 0.32471362 1.7690512 10197915
0.91105253 0.32471317 1.7690489 10197915
0.92960835 0.32471347 1.7690504 10197915
0.9500193 0.32471362 1.7690511 10197915
0.97043025 0.32471377 1.7690521 10197915
0.98898524 0.32471371 1.7690518 10197915
1.0093964 0.32471392 1.769053 10197915
1.0298088 0.32471445 1.769056 10197915
1.0502143 0.32471287 1.7690473 10197915
1.0706246 0.32471284 1.7690471 10197915
1.0891818 0.32471347 1.7690504 10197915
1.1095918 0.32471329 1.7690496 10197915
1.1300032 0.32471356 1.769051 10197915
1.150414 0.32471362 1.7690512 10197915
1.1708254 0.32471389 1.7690527 10197915
1.1893766 0.32471278 1.7690468 10197915
1.209787 0.32471278 1.7690467 10197915
1.2301991 0.3247132 1.7690489 10197915
1.2506088 0.32471299 1.7690477 10197915
1.2710202 0.32471317 1.7690489 10197915
1.2895771 0.32471365 1.7690516 10197915
1.3099867 0.32471341 1.7690501 10197915
1.330395 0.32471284 1.769047 10197915
1.348953 0.32471356 1.7690512 10197915
1.3693628 0.32471341 1.76905 10197915
1.3897736 0.32471347 1.7690504 10197915
1.4101849 0.32471359 1.7690511 10197915
1.4305971 0.324714 1.7690532 10197915
1.4491522 0.324714 1.7690535 10197915
1.4695584 0.32471302 1.7690481 10197915
1.4825505 0.3247138 1.7690523 10197915
-1.4902219 0.32469571 1.7894039 10197915
-1.4695791 0.32469624 1.789407 10197915
-1.4508101 0.32469615 1.7894065 10197915
-1.4301647 0.32469615 1.7894067 10197915
-1.4095213 0.32469666 1.7894093 10197915
-1.3907528 0.32469666 1.7894093 10197915
-1.3701042 0.32469589 1.7894049 10197915
-1.3494562 0.32469532 1.7894018 10197915
-1.3306907 0.32469606 1.7894061 10197915
-1.3100421 0.32469529 1.7894015 10197915
-1.2894365 0.32470527 1.7894567 10197915
-1.2706894 0.32471091 1.7894876 10197915
-1.2500457 0.32471153 1.7894913 10197915
-1.2293966 0.32471082 1.7894872 10197915
-1.2106249 0.32471028 1.7894844 10197915
-1.1899785 0.32471019 1.789484 10197915
-1.1693313 0.32470998 1.7894827 10197915
-1.1505656 0.32471102 1.7894882 10197915
-1.129918 0.32471067 1.7894864 10197915
-1.1092726 0.32471097 1.7894881 10197915
-1.090503 0.32471082 1.7894872 10197915
-1.0698539 0.32471004 1.789483 10197915
-1.049209 0.32471049 1.7894853 10197915
-1.0304425 0.32471135 1.7894901 10197915
-1.0097944 0.32471085 1.7894875 10197915
-0.98914874 0.32471108 1.7894886 10197915
-0.97037899 0.32471094 1.7894878 10197915
-0.94973373 0.32471129 1.7894899 10197915
-0.92908418 0.32471022 1.789484 10197915
-0.91031599 0.32471067 1.7894865 10197915
-0.88966972 0.32471067 1.7894864 10197915
-0.86902416 0.32471097 1.7894881 10197915
-0.85025436 0.32471085 1.7894872 10197915
-0.8296079 0.32471079 1.789487 10197915
-0.80896151 0.32471079 1.7894871 10197915
-0.79019213 0.32471079 1.7894871 10197915
-0.76954597 0.32471088 1.7894875 10197915
-0.74889767 0.32470998 1.7894827 10197915
-0.7301299 0.32471076 1.7894869 10197915
-0.70948333 0.32471061 1.7894859 10197915
-0.68883663 0.32471046 1.7894853 10197915
-0.67006791 0.32471076 1.7894871 10197915
-0.64942139 0.32471067 1.7894865 10197915
-0.62877476 0.32471055 1.7894857 10197915
-0.61000675 0.32471126 1.78949 10197915
-0.59123552 0.32471031 1.7894844 10197915
-0.5705905 0.32471102 1.7894884 10197915
-0.54994386 0.32471091 1.7894876 10197915
-0.53117537 0.3247115 1.7894909 10197915
-0.5105285 0.32471111 1.7894889 10197915
-0.48988089 0.32471031 1.7894844 10197915
-0.47111195 0.32471067 1.7894863 10197915
-0.45046544 0.32471052 1.7894856 10197915
-0.42981949 0.32471079 1.7894871 10197915
-0.41104954 0.32471037 1.7894847 10197915
-0.39040455 0.32471147 1.7894911 10197915
-0.36975798 0.32471129 1.78949 10197915
-0.35098791 0.32471076 1.7894869 10197915
-0.33034149 0.32471067 1.7894864 10197915
-0.30969536 0.32471091 1.7894878 10197915
-0.29092583 0.32471079 1.7894871 10197915
-0.27028015 0.32471156 1.7894913 10197915
-0.24963364 0.32471144 1.7894907 10197915
-0.23086426 0.3247115 1.7894911 10197915
-0.21209416 0.32471055 1.7894856 10197915
0.095723838 0.32471028 1.7894844 10197915
0.11073955 0.32471091 1.7894876 10197915
0.12950923 0.32471156 1.7894913 10197915
0.15015562 0.32471153 1.7894912 10197915
0.17080219 0.3247118 1.7894926 10197915
0.18957143 0.32471147 1.7894909 10197915
0.21021724 0.32471052 1.7894858 10197915
0.23086365 0.32471067 1.7894863 10197915
0.249633 0.32471061 1.7894862 10197915
0.27027982 0.32471117 1.7894892 10197915
0.2909264 0.32471138 1.7894905 10197915
0.30969572 0.32471126 1.7894897 10197915
0.33034229 0.32471147 1.7894908 10197915
0.35098782 0.32471067 1.7894863 10197915
0.36975661 0.32471007 1.7894833 10197915
0.39040372 0.32471079 1.789487 10197915
0.41105071 0.32471126 1.7894897 10197915
0.42981958 0.32471085 1.7894875 10197915
0.45046628 0.32471111 1.7894889 10197915
0.47111297 0.32471132 1.7894901 10197915
0.48988169 0.32471088 1.7894876 10197915
0.51052827 0.32471097 1.7894882 10197915
0.53117526 0.32471138 1.7894905 10197915
0.54994488 0.3247115 1.7894909 10197915
0.57059157 0.32471168 1.7894918 10197915
0.59123778 0.32471153 1.7894913 10197915
0.61000699 0.32471141 1.7894905 10197915
0.62877619 0.32471129 1.78949 10197915
0.64942092 0.32471049 1.7894855 10197915
0.67006898 0.32471129 1.78949 10197915
0.68883812 0.32471114 1.7894892 10197915
0.70948476 0.32471126 1.7894897 10197915
0.73013151 0.32471144 1.7894905 10197915
0.74890059 0.32471129 1.78949 10197915
0.76954675 0.3247112 1.7894894 10197915
0.79019201 0.32471076 1.7894866 10197915
0.8089636 0.32471162 1.7894914 10197915
0.82961011 0.32471162 1.7894918 10197915
0.85025567 0.32471135 1.78949 10197915
0.86902601 0.32471162 1.7894917 10197915
0.8896727 0.32471174 1.7894922 10197915
0.91031706 0.32471102 1.7894886 10197915
0.92908591 0.32471085 1.7894875 10197915
0.94973308 0.32471111 1.7894888 10197915
0.97037983 0.32471126 1.7894894 10197915
0.98915017 0.3247115 1.7894911 10197915
1.0097957 0.32471123 1.7894894 10197915
1.0304421 0.32471126 1.7894897 10197915
1.0492111 0.32471114 1.789489 10197915
1.0698553 0.32471046 1.7894851 10197915
1.0905042 0.32471123 1.7894894 10197915
1.1092732 0.32471111 1.7894888 10197915
1.12992 0.32471123 1.7894894 10197915
1.1505668 0.32471138 1.7894905 10197915
1.1693358 0.32471126 1.7894897 10197915
1.1899813 0.32471097 1.7894882 10197915
1.2106266 0.32471067 1.7894866 10197915
1.2293993 0.32471153 1.7894913 10197915
1.2500458 0.32471159 1.7894917 10197915
1.2706909 0.32471126 1.78949 10197915
1.2894616 0.32471159 1.7894914 10197915
1.3101084 0.32471171 1.7894921 10197915
1.3307537 0.32471141 1.7894905 10197915
1.34952 0.32471067 1.7894863 10197915
1.3701671 0.32471082 1.7894872 10197915
1.390815 0.32471114 1.7894894 10197915
1.4095857 0.3247115 1.7894909 10197915
1.4302307 0.32471117 1.7894893 10197915
1.4508773 0.32471123 1.7894894 10197915
1.4696481 0.32471153 1.7894911 10197915
1.4902917 0.32471091 1.7894878 10197915
-1.5095417 0.32469386 1.8103225 10197915
-1.4905535 0.32469383 1.8103222 10197915
-1.4696676 0.32469401 1.8103231 10197915
-1.4487813 0.3246941 1.8103237 10197915
-1.4297922 0.32469383 1.8103222 10197915
-1.4108036 0.32469368 1.8103215 10197915
-1.3899183 0.32469404 1.8103234 10197915
-1.3690333 0.32469445 1.8103256 10197915
-1.3500439 0.3246941 1.8103237 10197915
-1.331056 0.32469413 1.810324 10197915
-1.3102098 0.3247042 1.8103801 10197915
-1.2893413 0.32470894 1.8104064 10197915
-1.2703507 0.32470846 1.8104038 10197915
-1.2513597 0.32470793 1.8104007 10197915
-1.2304729 0.32470813 1.810402 10197915
-1.2095867 0.32470852 1.8104042 10197915
-1.1905972 0.32470834 1.8104031 10197915
-1.1697109 0.3247087 1.8104049 10197915
-1.1488234 0.3247087 1.8104051 10197915
-1.1298336 0.32470852 1.8104041 10197915
-1.110845 0.32470855 1.8104042 10197915
-1.0899566 0.32470831 1.8104029 10197915
-1.0690703 0.32470876 1.8104055 10197915
-1.0500828 0.32470915 1.8104079 10197915
-1.0310924 0.3247087 1.810405 10197915
-1.0102067 0.3247093 1.8104085 10197915
-0.98931754 0.32470879 1.8104055 10197915
-0.97032654 0.3247081 1.8104017 10197915
-0.95133895 0.32470852 1.8104042 10197915
-0.9304511 0.32470843 1.8104037 10197915
-0.9095639 0.32470864 1.810405 10197915
-0.89057618 0.324709 1.8104069 10197915
-0.86968797 0.32470882 1.8104057 10197915
-0.8488003 0.32470882 1.810406 10197915
-0.82981128 0.32470876 1.8104055 10197915
-0.81082201 0.32470861 1.8104044 10197915
-0.78993511 0.32470891 1.8104062 10197915
-0.76904726 0.32470885 1.810406 10197915
-0.75005877 0.324709 1.8104067 10197915
-0.73107159 0.32470971 1.8104107 10197915
-0.71018314 0.32470942 1.8104092 10197915
-0.68929279 0.32470819 1.8104023 10197915
-0.67030537 0.32470885 1.810406 10197915
-0.65131694 0.324709 1.8104069 10197915
-0.63042831 0.32470855 1.8104044 10197915
-0.60954201 0.32470936 1.8104086 10197915
-0.59055269 0.32470906 1.810407 10197915
-0.56966525 0.32470921 1.8104081 10197915
-0.54877675 0.32470876 1.8104055 10197915
-0.52978706 0.32470816 1.8104023 10197915
-0.51079834 0.32470822 1.8104025 10197915
-0.48991179 0.32470897 1.8104067 10197915
-0.46902362 0.32470867 1.810405 10197915
-0.45003533 0.32470903 1.8104069 10197915
-0.43104655 0.32470906 1.8104073 10197915
-0.41015875 0.32470903 1.8104068 10197915
-0.38927087 0.32470888 1.8104061 10197915
-0.37028185 0.3247087 1.810405 10197915
-0.35129344 0.32470906 1.810407 10197915
-0.33040604 0.32470942 1.8104089 10197915
-0.30951804 0.32470909 1.8104073 10197915
-0.29052958 0.32470953 1.8104099 10197915
-0.26964131 0.32470888 1.8104061 10197915
-0.24875347 0.3247087 1.8104051 10197915
-0.22976474 0.32470888 1.8104061 10197915
-0.21267456 0.32470849 1.8104041 10197915
0.094944328 0.32470959 1.8104101 10197915
0.11013538 0.32470948 1.8104094 10197915
0.13102314 0.32470953 1.8104098 10197915
0.15001217 0.32470989 1.8104118 10197915
0.16900072 0.32470924 1.8104082 10197915
0.18988834 0.32470906 1.8104073 10197915
0.21077588 0.32470879 1.8104055 10197915
0.22976491 0.32470909 1.8104073 10197915
0.24875414 0.32470959 1.8104101 10197915
0.26964161 0.32470927 1.8104085 10197915
0.29052967 0.32470959 1.8104103 10197915
0.30951825 0.32470933 1.8104086 10197915
0.33040532 0.3247087 1.8104051 10197915
0.35129327 0.32470894 1.8104063 10197915
0.37028193 0.32470876 1.8104055 10197915
0.38927102 0.324709 1.8104069 10197915
0.41015926 0.32470942 1.8104092 10197915
0.4310469 0.32470936 1.8104088 10197915
0.45003524 0.324709 1.8104067 10197915
0.46902466 0.32470939 1.8104089 10197915
0.48991224 0.32470927 1.8104085 10197915
0.51079977 0.32470912 1.8104076 10197915
0.52978915 0.32470948 1.8104093 10197915
0.54877841 0.32470974 1.8104109 10197915
0.56966627 0.32470974 1.8104111 10197915
0.5905534 0.32470939 1.8104092 10197915
0.60954112 0.32470885 1.810406 10197915
0.63042909 0.324709 1.8104067 10197915
0.65131724 0.32470918 1.8104076 10197915
0.67030668 0.32470948 1.8104093 10197915
0.68929511 0.32470924 1.8104084 10197915
0.71018314 0.32470939 1.8104091 10197915
0.73107135 0.32470962 1.8104103 10197915
0.75005805 0.32470873 1.8104051 10197915
0.76904655 0.32470852 1.8104042 10197915
0.78993493 0.32470885 1.8104059 10197915
0.81082356 0.32470918 1.8104079 10197915
0.82981223 0.32470912 1.8104076 10197915
0.84880131 0.32470924 1.810408 10197915
0.86968964 0.32470942 1.8104092 10197915
0.89057618 0.324709 1.8104067 10197915
0.90956557 0.32470921 1.810408 10197915
0.93045348 0.3247093 1.8104082 10197915
0.95134151 0.32470942 1.8104089 10197915
0.97033107 0.32470962 1.8104103 10197915
0.98931998 0.32470965 1.8104103 10197915
1.0102087 0.32470992 1.810412 10197915
1.0310934 0.324709 1.8104067 10197915
1.0500822 0.32470894 1.8104064 10197915
1.0690722 0.32470933 1.8104086 10197915
1.0899595 0.32470918 1.8104076 10197915
1.1108477 0.32470936 1.8104088 10197915
1.1298375 0.32470962 1.8104103 10197915
1.1488264 0.32470959 1.8104099 10197915
1.1697137 0.32470945 1.8104094 10197915
1.1905986 0.3247087 1.8104051 10197915
1.2095881 0.32470888 1.8104061 10197915
1.2304767 0.32470918 1.8104078 10197915
1.2513647 0.32470918 1.8104079 10197915
1.270353 0.32470903 1.810407 10197915
1.2893436 0.32470953 1.8104098 10197915
1.3102316 0.32470956 1.8104099 10197915
1.3311175 0.32470912 1.8104074 10197915
1.3501055 0.32470894 1.8104064 10197915
1.3690965 0.32470948 1.8104093 10197915
1.3899851 0.32470965 1.8104105 10197915
1.4108731 0.32470965 1.8104105 10197915
1.4298627 0.32470989 1.8104118 10197915
1.4488531 0.32471022 1.8104137 10197915
1.4697342 0.32470873 1.8104051 10197915
1.4906228 0.32470891 1.8104063 10197915
1.5096132 0.32470924 1.8104082 10197915
-1.5293214 0.32469261 1.8317392 10197915
-1.5101061 0.32469201 1.8317361 10197915
-1.4889728 0.3246921 1.8317366 10197915
-1.4697621 0.32469255 1.8317387 10197915
-1.4505442 0.32469139 1.8317324 10197915
-1.4313316 0.32469136 1.8317322 10197915
-1.4101995 0.32469174 1.8317342 10197915
-1.3890669 0.32469198 1.8317356 10197915
-1.3698528 0.32469159 1.8317337 10197915
-1.3506413 0.32469183 1.831735 10197915
-1.3314673 0.32470125 1.8317881 10197915
-1.3103544 0.32470655 1.8318181 10197915
-1.28922 0.32470664 1.8318183 10197915
-1.270004 0.32470599 1.8318148 10197915
