# .PCD v0.7 - Point Cloud Data file format
VERSION 0.7
FIELDS x y z rgb
SIZE 4 4 4 4
TYPE F F F U
COUNT 1 1 1 1
WIDTH 1167
HEIGHT 1
VIEWPOINT 0 0 0 1 0 0 0
POINTS 1167
DATA ascii
-0.4309428 0.3249504 1.3296555 10197915
-0.41002402 0.32495099 1.3296578 10197915
-0.38910469 0.32495123 1.3296587 10197915
-0.36957994 0.32495138 1.3296596 10197915
-0.35005459 0.32495111 1.3296583 10197915
-0.3305299 0.32495135 1.3296593 10197915
-0.31100538 0.3249518 1.3296611 10197915
-0.29008582 0.32495186 1.3296614 10197915
-0.2691659 0.32495159 1.3296603 10197915
-0.24964133 0.32495213 1.3296624 10197915
-0.23011641 0.3249523 1.3296632 10197915
-0.21059145 0.32495239 1.3296635 10197915
-0.19106631 0.32495221 1.3296629 10197915
-0.17014691 0.32495269 1.3296647 10197915
-0.15480568 0.32495245 1.3296639 10197915
0.07391616 0.32495216 1.3296626 10197915
0.090651929 0.32495233 1.3296633 10197915
0.11017709 0.32495266 1.3296648 10197915
0.12970209 0.32495257 1.3296643 10197915
0.14922728 0.32495287 1.3296654 10197915
0.17014672 0.32495239 1.3296635 10197915
0.19106615 0.32495192 1.3296615 10197915
0.21059129 0.32495213 1.3296624 10197915
0.23011641 0.32495227 1.3296632 10197915
0.24964149 0.3249523 1.3296633 10197915
0.26916683 0.32495275 1.3296649 10197915
0.2900866 0.32495278 1.3296652 10197915
0.31100607 0.32495251 1.3296641 10197915
0.33053094 0.32495236 1.3296635 10197915
0.35005555 0.32495195 1.329662 10197915
0.36958057 0.32495198 1.329662 10197915
0.38910595 0.32495227 1.329663 10197915
0.41002554 0.32495219 1.3296627 10197915
0.43094596 0.32495275 1.3296652 10197915
0.45047045 0.32495236 1.3296635 10197915
0.46999592 0.32495266 1.3296648 10197915
0.4895201 0.32495213 1.3296624 10197915
0.50904465 0.3249518 1.3296611 10197915
0.52996475 0.32495207 1.3296622 10197915
0.55088377 0.32495168 1.3296607 10197915
0.57041013 0.32495245 1.329664 10197915
0.58993483 0.3249523 1.3296632 10197915
0.60946035 0.32495254 1.3296642 10197915
0.62898558 0.32495266 1.3296648 10197915
0.64990407 0.32495201 1.3296623 10197915
0.67082351 0.32495195 1.3296617 10197915
0.69034833 0.32495186 1.3296614 10197915
0.70987421 0.32495221 1.3296629 10197915
0.72939914 0.32495221 1.329663 10197915
0.74892479 0.32495245 1.329664 10197915
0.76984453 0.32495248 1.329664 10197915
0.79076451 0.32495263 1.3296646 10197915
0.81028795 0.32495195 1.3296617 10197915
0.82981211 0.32495165 1.3296605 10197915
0.84933794 0.32495192 1.3296616 10197915
0.86886346 0.32495213 1.3296626 10197915
0.88978302 0.32495207 1.3296623 10197915
0.91070372 0.32495245 1.329664 10197915
0.93022782 0.32495216 1.3296626 10197915
0.94975483 0.32495284 1.3296653 10197915
0.96927625 0.32495162 1.3296603 10197915
0.99019635 0.32495177 1.329661 10197915
1.0111173 0.32495219 1.3296629 10197915
1.0306417 0.32495195 1.3296617 10197915
1.0501677 0.3249523 1.3296632 10197915
1.0696918 0.32495198 1.3296621 10197915
1.089219 0.32495263 1.3296646 10197915
1.1073488 0.32495251 1.3296639 10197915
-1.1265138 0.32494918 1.3495291 10197915
-1.1104814 0.32494926 1.3470194 10197915
-1.0907009 0.32494909 1.347019 10197915
-1.070922 0.32494932 1.3470199 10197915
-1.0504056 0.32494876 1.3474081 10197915
-1.0299412 0.32494879 1.3470174 10197915
-1.009496 0.32494909 1.3466281 10197915
-0.98897547 0.324949 1.3470185 10197915
-0.96919519 0.32494879 1.3470179 10197915
-0.94941407 0.32494846 1.3470161 10197915
-0.92963606 0.32494909 1.3470186 10197915
-0.90985614 0.32494906 1.3470188 10197915
-0.89007699 0.32494929 1.3470198 10197915
-0.87029546 0.32494873 1.3470172 10197915
-0.8505159 0.32494885 1.347018 10197915
-0.83003539 0.32495186 1.3466401 10197915
-0.80955797 0.3249523 1.347032 10197915
-0.78977531 0.3249512 1.3470275 10197915
-0.76999682 0.32495189 1.3470303 10197915
-0.75021654 0.32495168 1.3470297 10197915
-0.73043746 0.32495216 1.3470315 10197915
-0.71065629 0.32495168 1.3470297 10197915
-0.69087726 0.3249521 1.3470314 10197915
-0.67109698 0.32495204 1.347031 10197915
-0.65056664 0.32495221 1.3466412 10197915
-0.62946111 0.32495168 1.34742 10197915
-0.60893023 0.32495162 1.347029 10197915
-0.58915043 0.32495165 1.3470296 10197915
-0.56937051 0.32495174 1.3470299 10197915
-0.54959077 0.32495195 1.3470308 10197915
-0.52981126 0.32495233 1.3470322 10197915
-0.51003116 0.3249523 1.3470322 10197915
-0.49025044 0.32495186 1.3470303 10197915
-0.47046956 0.32495132 1.3470281 10197915
-0.44999751 0.32495171 1.3466393 10197915
-0.42950347 0.3249518 1.3470299 10197915
-0.40972352 0.32495186 1.3470303 10197915
-0.38994336 0.32495174 1.34703 10197915
-0.37016371 0.32495216 1.3470316 10197915
-0.35038349 0.32495195 1.3470308 10197915
-0.33060363 0.32495219 1.3470316 10197915
-0.31082359 0.32495227 1.3470318 10197915
-0.29104334 0.32495198 1.3470309 10197915
-0.27052864 0.32495207 1.3466407 10197915
-0.2500768 0.32495239 1.3470324 10197915
-0.23029682 0.32495257 1.3470331 10197915
-0.20982109 0.32495272 1.3474246 10197915
-0.18931772 0.32495269 1.3470337 10197915
-0.16953747 0.32495239 1.3470328 10197915
-0.15612383 0.32495242 1.3458612 10197915
0.07346902 0.32495296 1.3470349 10197915
0.089734919 0.32495272 1.3466434 10197915
0.11019739 0.32495302 1.3470351 10197915
0.12997751 0.32495305 1.3470352 10197915
0.14975749 0.32495266 1.3470336 10197915
0.16953734 0.32495227 1.3470317 10197915
0.18931757 0.32495242 1.3470329 10197915
0.20982085 0.32495248 1.3474232 10197915
0.23029676 0.32495245 1.3470328 10197915
0.2500771 0.32495278 1.3470342 10197915
0.27052924 0.32495275 1.3466436 10197915
0.29104453 0.32495332 1.3470365 10197915
0.31082454 0.32495317 1.3470358 10197915
0.33060339 0.32495198 1.3470308 10197915
0.35038376 0.32495221 1.3470318 10197915
0.37016425 0.32495257 1.3470334 10197915
0.38994434 0.32495257 1.3470334 10197915
0.40972465 0.32495281 1.3470341 10197915
0.42950496 0.3249529 1.3470346 10197915
0.44999945 0.32495302 1.3466449 10197915
0.47047147 0.3249526 1.3470334 10197915
0.49025077 0.32495207 1.3470312 10197915
0.5100314 0.32495245 1.3470329 10197915
0.52981156 0.32495245 1.3470328 10197915
0.54959136 0.32495227 1.3470322 10197915
0.56937206 0.32495263 1.3470335 10197915
0.58915246 0.32495281 1.3470343 10197915
0.60893333 0.32495323 1.347036 10197915
0.62946349 0.32495293 1.3474252 10197915
0.65056723 0.32495251 1.3466426 10197915
0.67109901 0.32495302 1.3470351 10197915
0.69087905 0.32495299 1.3470351 10197915
0.7106595 0.32495314 1.3470356 10197915
0.73044008 0.32495335 1.3470365 10197915
0.75022048 0.3249535 1.347037 10197915
0.77000058 0.32495341 1.3470365 10197915
0.7897802 0.32495326 1.347036 10197915
0.80955893 0.32495263 1.3470336 10197915
0.83003813 0.32495296 1.3466445 10197915
0.85052615 0.32495269 1.3470339 10197915
0.87030733 0.32495308 1.3470354 10197915
0.89008749 0.32495326 1.3470358 10197915
0.90986872 0.32495353 1.3470371 10197915
0.92964882 0.3249535 1.3470373 10197915
0.94942814 0.32495326 1.3470361 10197915
0.96920633 0.32495257 1.3470333 10197915
0.98898709 0.32495284 1.3470345 10197915
1.0095079 0.3249529 1.346644 10197915
1.0299556 0.32495332 1.3470364 10197915
1.0497352 0.32495311 1.3470355 10197915
1.0702057 0.32495323 1.3474265 10197915
1.0907153 0.32495338 1.3470367 10197915
1.1104958 0.32495356 1.3470371 10197915
1.1265284 0.32495335 1.3495467 10197915
-1.1464949 0.32495046 1.3734661 10197915
-1.1301405 0.32495049 1.3708665 10197915
-1.11001 0.32495037 1.3708659 10197915
-1.0898793 0.32495016 1.3708652 10197915
-1.0697479 0.32494977 1.3708636 10197915
-1.0496185 0.32494995 1.3708645 10197915
-1.029489 0.32495013 1.3708651 10197915
-1.0093597 0.32495037 1.3708661 10197915
-0.98922682 0.32494944 1.3708622 10197915
-0.96909773 0.32494974 1.3708633 10197915
-0.94896829 0.32494992 1.3708643 10197915
-0.92952037 0.32494989 1.3703977 10197915
-0.91015184 0.32494968 1.3708633 10197915
-0.89002049 0.32494923 1.3708614 10197915
-0.86989403 0.32495052 1.3708668 10197915
-0.84977049 0.32495302 1.3708774 10197915
-0.82963854 0.32495239 1.3708746 10197915
-0.80950898 0.3249526 1.3708756 10197915
-0.78937858 0.32495254 1.3708755 10197915
-0.76924884 0.32495275 1.3708763 10197915
-0.74911934 0.32495302 1.3708774 10197915
-0.72898895 0.32495293 1.3708771 10197915
-0.70885944 0.32495329 1.3708785 10197915
-0.68940294 0.32495323 1.3713448 10197915
-0.67002928 0.32495266 1.3708761 10197915
-0.65067601 0.3249526 1.370409 10197915
-0.63121301 0.32495263 1.3708757 10197915
-0.61108345 0.32495302 1.3708775 10197915
-0.59095269 0.32495269 1.3708761 10197915
-0.57082254 0.32495278 1.3708763 10197915
-0.55069292 0.32495308 1.3708774 10197915
-0.53056306 0.32495335 1.3708789 10197915
-0.51043195 0.32495281 1.3708763 10197915
-0.49030107 0.32495236 1.3708746 10197915
-0.47017112 0.32495245 1.3708752 10197915
-0.45004129 0.32495281 1.3708763 10197915
-0.42991108 0.32495281 1.3708763 10197915
-0.40978104 0.32495287 1.3708769 10197915
-0.39040577 0.32495275 1.3704096 10197915
-0.37096545 0.32495341 1.3708792 10197915
-0.35083458 0.32495287 1.3708767 10197915
-0.33070365 0.32495219 1.3708738 10197915
-0.31057355 0.32495227 1.370874 10197915
-0.29044399 0.32495299 1.3708769 10197915
-0.27031386 0.32495308 1.3708775 10197915
-0.25018352 0.32495293 1.370877 10197915
-0.23005351 0.32495326 1.3708782 10197915
-0.20992331 0.32495326 1.3708783 10197915
-0.1897928 0.32495284 1.3708764 10197915
-0.16966228 0.3249523 1.370874 10197915
-0.15745123 0.32495272 1.3688542 10197915
0.074769646 0.32495403 1.3708816 10197915
0.090586305 0.324954 1.3708813 10197915
0.11071666 0.32495424 1.3708824 10197915
0.13013576 0.324954 1.3704147 10197915
0.14953263 0.32495338 1.3708788 10197915
0.16966291 0.32495338 1.3708789 10197915
0.18979327 0.32495365 1.37088 10197915
0.20992358 0.32495371 1.3708802 10197915
0.23005395 0.32495379 1.3708805 10197915
0.25018448 0.32495412 1.370882 10197915
0.27031466 0.32495406 1.3708818 10197915
0.290445 0.32495403 1.3708818 10197915
0.3105748 0.32495356 1.3708794 10197915
0.33070499 0.3249535 1.3708794 10197915
0.35083526 0.32495353 1.3708794 10197915
0.37096548 0.3249535 1.3708793 10197915
0.39040712 0.32495385 1.3704143 10197915
0.40978217 0.32495382 1.3708807 10197915
0.42991289 0.32495412 1.370882 10197915
0.45004341 0.32495427 1.3708826 10197915
0.4701722 0.32495326 1.3708783 10197915
0.49030253 0.32495329 1.3708786 10197915
0.51043332 0.32495359 1.3708798 10197915
0.53056347 0.32495362 1.3708799 10197915
0.55069453 0.32495406 1.3708818 10197915
0.57082456 0.32495394 1.3708811 10197915
0.59095532 0.32495412 1.3708823 10197915
0.61108595 0.32495433 1.3708829 10197915
0.63121492 0.32495365 1.37088 10197915
0.65067798 0.32495359 1.3704133 10197915
0.67003095 0.32495353 1.3708793 10197915
0.68940413 0.32495376 1.3713473 10197915
0.70886046 0.32495379 1.3708805 10197915
0.72899091 0.32495382 1.3708808 10197915
0.74912155 0.324954 1.3708814 10197915
0.76925242 0.32495427 1.3708823 10197915
0.78938109 0.32495356 1.3708795 10197915
0.80951118 0.32495353 1.3708794 10197915
0.82964104 0.32495335 1.3708785 10197915
0.84977233 0.32495373 1.3708804 10197915
0.86990279 0.32495379 1.3708805 10197915
0.89003342 0.32495397 1.3708812 10197915
0.91016388 0.32495394 1.3708812 10197915
0.92953295 0.32495433 1.370416 10197915
0.94897938 0.32495373 1.3708804 10197915
0.96910864 0.32495338 1.3708789 10197915
0.98923951 0.32495359 1.3708798 10197915
1.0093704 0.32495376 1.3708804 10197915
1.0295008 0.32495382 1.3708807 10197915
1.0496311 0.32495382 1.3708807 10197915
1.0697625 0.32495418 1.370882 10197915
1.089893 0.32495421 1.3708823 10197915
1.1100215 0.32495373 1.3708804 10197915
1.1301509 0.3249535 1.3708792 10197915
1.1465073 0.32495394 1.3734809 10197915
-1.1628277 0.32495064 1.3892822 10197915
-1.1497133 0.32495067 1.3892823 10197915
-1.1293147 0.3249512 1.3892848 10197915
-1.1089098 0.32494995 1.3892792 10197915
-1.0899682 0.32495043 1.3892813 10197915
-1.0710251 0.32495046 1.3892815 10197915
-1.0506257 0.32495078 1.3892829 10197915
-1.0302262 0.32495114 1.3892843 10197915
-1.0098231 0.32495028 1.3892807 10197915
-0.98942274 0.32495031 1.3892807 10197915
-0.9690209 0.32494989 1.3892788 10197915
-0.95007819 0.32495007 1.3892797 10197915
-0.9311341 0.32494977 1.3892785 10197915
-0.91073287 0.32494953 1.3892776 10197915
-0.89033544 0.32495055 1.3892819 10197915
-0.86994213 0.32495329 1.3892936 10197915
-0.84954131 0.32495323 1.3892933 10197915
-0.82914048 0.32495314 1.389293 10197915
-0.81019813 0.32495356 1.3892947 10197915
-0.79125446 0.32495341 1.3892944 10197915
-0.770854 0.32495356 1.3892947 10197915
-0.75045455 0.32495412 1.3892972 10197915
-0.73005241 0.3249535 1.3892944 10197915
-0.70965099 0.32495311 1.3892928 10197915
-0.6892485 0.32495227 1.3892891 10197915
-0.66884947 0.32495302 1.3892924 10197915
-0.64990538 0.32495272 1.3892912 10197915
-0.63096195 0.32495269 1.389291 10197915
-0.61056274 0.32495347 1.3892943 10197915
-0.59016162 0.32495317 1.3892931 10197915
-0.56976157 0.32495353 1.3892945 10197915
-0.54936081 0.32495347 1.3892944 10197915
-0.52895904 0.32495278 1.3892915 10197915
-0.51001632 0.32495323 1.3892933 10197915
-0.49107265 0.32495311 1.3892928 10197915
-0.47067219 0.32495326 1.3892934 10197915
-0.45027193 0.32495359 1.3892949 10197915
-0.42987177 0.32495388 1.3892963 10197915
-0.40947077 0.32495365 1.3892952 10197915
-0.38907048 0.32495397 1.3892965 10197915
-0.37012649 0.32495353 1.3892947 10197915
-0.35118261 0.32495323 1.3892931 10197915
-0.33078194 0.32495314 1.389293 10197915
-0.31038079 0.32495269 1.389291 10197915
-0.28998047 0.32495305 1.3892925 10197915
-0.26958016 0.32495338 1.3892939 10197915
-0.24917945 0.32495332 1.3892936 10197915
-0.22877887 0.32495341 1.3892944 10197915
-0.20983523 0.32495317 1.3892931 10197915
-0.19089165 0.32495293 1.3892921 10197915
-0.17049098 0.32495287 1.3892919 10197915
-0.15883408 0.32495415 1.3892972 10197915
0.074316718 0.32495353 1.3892946 10197915
0.088888727 0.32495385 1.3892962 10197915
0.10928936 0.32495373 1.3892953 10197915
0.12968978 0.32495302 1.3892926 10197915
0.15009049 0.32495317 1.3892933 10197915
0.17049141 0.32495373 1.3892953 10197915
0.19089195 0.32495347 1.3892943 10197915
0.2098356 0.32495376 1.3892956 10197915
0.22877932 0.32495403 1.3892968 10197915
0.24918012 0.32495421 1.3892975 10197915
0.26958096 0.32495433 1.3892981 10197915
0.2899811 0.32495371 1.3892953 10197915
0.31038171 0.32495362 1.389295 10197915
0.33078271 0.32495397 1.3892964 10197915
0.35118347 0.324954 1.3892967 10197915
0.37012705 0.32495403 1.3892969 10197915
0.38907075 0.32495421 1.3892975 10197915
0.40947184 0.32495451 1.3892988 10197915
0.42987201 0.32495406 1.3892969 10197915
0.45027164 0.32495332 1.3892938 10197915
0.4706721 0.32495317 1.389293 10197915
0.4910731 0.32495341 1.389294 10197915
0.51001698 0.32495368 1.3892952 10197915
0.52896023 0.32495353 1.3892946 10197915
0.54936153 0.32495385 1.3892959 10197915
0.56976235 0.324954 1.3892967 10197915
0.59016353 0.32495424 1.3892976 10197915
0.6105634 0.32495376 1.3892957 10197915
0.63096398 0.32495373 1.3892953 10197915
0.64990747 0.32495373 1.3892956 10197915
0.66885138 0.32495397 1.3892963 10197915
0.6892522 0.32495397 1.3892964 10197915
0.70965338 0.32495421 1.3892975 10197915
0.73005474 0.32495451 1.3892988 10197915
0.75045556 0.32495457 1.3892992 10197915
0.77085537 0.32495418 1.3892974 10197915
0.79125422 0.32495341 1.389294 10197915
0.81019735 0.32495323 1.3892933 10197915
0.82914162 0.32495359 1.3892947 10197915
0.84954202 0.32495341 1.389294 10197915
0.86994404 0.32495394 1.3892964 10197915
0.8903448 0.324954 1.3892967 10197915
0.91074592 0.32495412 1.3892971 10197915
0.9311465 0.32495406 1.3892969 10197915
0.95008832 0.32495353 1.3892947 10197915
0.96903229 0.32495371 1.3892953 10197915
0.98943341 0.32495379 1.3892958 10197915
1.009835 0.32495412 1.3892972 10197915
1.0302362 0.32495427 1.3892978 10197915
1.0506375 0.32495442 1.3892983 10197915
1.0710386 0.32495457 1.3892992 10197915
1.0899822 0.32495454 1.3892989 10197915
1.1089268 0.3249549 1.3893003 10197915
1.1293279 0.32495499 1.3893009 10197915
1.1497278 0.32495475 1.3892996 10197915
1.1628436 0.32495505 1.3893011 10197915
-1.184072 0.32495213 1.4146638 10197915
-1.1692189 0.32495147 1.408752 10197915
-1.1498879 0.3249509 1.4087498 10197915
-1.12994 0.32495114 1.4082582 10197915
-1.1100111 0.3249507 1.407764 10197915
-1.0900644 0.32495075 1.4082566 10197915
-1.0693867 0.32495114 1.4082584 10197915
-1.0494102 0.32495064 1.4087481 10197915
-1.0302764 0.32495064 1.4077637 10197915
-1.0103029 0.32495096 1.4082575 10197915
-0.98962367 0.32495093 1.4082572 10197915
-0.96894425 0.32495084 1.4082569 10197915
-0.94974369 0.32495132 1.408259 10197915
-0.93053836 0.32495022 1.4082544 10197915
-0.90986216 0.32495126 1.408259 10197915
-0.88990349 0.32495335 1.4077754 10197915
-0.86999363 0.3249535 1.4082683 10197915
-0.85006291 0.32495356 1.4087613 10197915
-0.8301062 0.32495376 1.4082696 10197915
-0.81017017 0.32495403 1.4077785 10197915
-0.79023206 0.32495406 1.408271 10197915
-0.76955336 0.32495433 1.4082721 10197915
-0.74958718 0.32495433 1.4087646 10197915
-0.73043472 0.32495391 1.4077779 10197915
-0.71046793 0.32495362 1.4082689 10197915
-0.68978876 0.32495356 1.4082689 10197915
-0.6691097 0.32495371 1.4082696 10197915
-0.64990711 0.32495356 1.4082688 10197915
-0.63070542 0.32495382 1.4082699 10197915
-0.61002696 0.32495433 1.4082719 10197915
-0.58934742 0.32495421 1.4082714 10197915
-0.56938189 0.32495448 1.4077804 10197915
-0.55022919 0.32495382 1.4087622 10197915
-0.53026265 0.32495353 1.4082687 10197915
-0.50958407 0.32495403 1.4082707 10197915
-0.48964554 0.32495382 1.4077773 10197915
-0.4697091 0.32495388 1.4082702 10197915
-0.44975287 0.32495469 1.4087663 10197915
-0.43058279 0.32495403 1.4077785 10197915
-0.41062573 0.32495424 1.4082716 10197915
-0.38994622 0.32495409 1.4082711 10197915
-0.36926618 0.32495341 1.4082682 10197915
-0.35006437 0.32495379 1.4082695 10197915
-0.33086205 0.32495365 1.4082693 10197915
-0.31018281 0.32495371 1.4082695 10197915
-0.28950408 0.32495442 1.4082725 10197915
-0.26952928 0.32495445 1.4077802 10197915
-0.25039533 0.32495457 1.4087658 10197915
-0.2304202 0.32495427 1.4082719 10197915
-0.2097408 0.32495424 1.4082717 10197915
-0.18979365 0.32495388 1.4077778 10197915
-0.16986586 0.32495406 1.4082712 10197915
0.075332038 0.32495502 1.4082751 10197915
0.09010303 0.32495499 1.408275 10197915
0.11005866 0.32495451 1.4077805 10197915
0.12997764 0.32495421 1.4082716 10197915
0.14991739 0.32495418 1.4087638 10197915
0.169866 0.32495433 1.4082721 10197915
0.18979408 0.32495469 1.4077811 10197915
0.20974101 0.32495454 1.408273 10197915
0.23042056 0.32495481 1.4082744 10197915
0.25039577 0.3249552 1.4087684 10197915
0.2695294 0.32495463 1.4077811 10197915
0.28950423 0.32495454 1.4082731 10197915
0.31018335 0.3249543 1.4082721 10197915
0.33086267 0.32495427 1.4082718 10197915
0.35006556 0.32495487 1.4082745 10197915
0.36926755 0.3249546 1.4082733 10197915
0.38994697 0.32495469 1.4082736 10197915
0.41062695 0.32495517 1.4082758 10197915
0.43058378 0.32495481 1.4077816 10197915
0.44975275 0.32495457 1.4087657 10197915
0.46970987 0.32495445 1.4082726 10197915
0.48964626 0.32495424 1.4077795 10197915
0.50958502 0.3249546 1.4082733 10197915
0.53026503 0.32495499 1.408275 10197915
0.55023015 0.32495448 1.408765 10197915
0.56938279 0.32495499 1.4077827 10197915
0.58934963 0.32495537 1.4082766 10197915
0.61002737 0.32495448 1.4082727 10197915
0.63070691 0.32495454 1.408273 10197915
0.64990896 0.32495445 1.4082727 10197915
0.66911137 0.32495451 1.408273 10197915
0.68979186 0.32495508 1.4082754 10197915
0.71047008 0.32495454 1.4082733 10197915
0.73043716 0.32495499 1.4077824 10197915
0.74958968 0.32495534 1.4087691 10197915
0.76955473 0.3249549 1.4082748 10197915
0.79023343 0.32495457 1.4082731 10197915
0.81017184 0.32495469 1.4077814 10197915
0.83010787 0.32495445 1.4082726 10197915
0.85006618 0.32495481 1.4087666 10197915
0.8699975 0.3249549 1.4082747 10197915
0.88990772 0.32495484 1.4077821 10197915
0.90987366 0.32495537 1.4082767 10197915
0.9305526 0.32495522 1.4082757 10197915
0.94975328 0.32495466 1.4082736 10197915
0.96895522 0.32495454 1.408273 10197915
0.98963499 0.32495466 1.4082737 10197915
1.0103143 0.32495469 1.4082735 10197915
1.0302904 0.32495502 1.4077827 10197915
1.0494241 0.32495487 1.408767 10197915
1.0694001 0.32495522 1.4082758 10197915
1.0900795 0.32495528 1.4082763 10197915
1.1100253 0.32495484 1.4077821 10197915
1.1299522 0.3249546 1.4082733 10197915
1.1499015 0.32495481 1.4087665 10197915
1.1692311 0.32495484 1.4087669 10197915
1.1840831 0.32495514 1.4146769 10197915
-1.1889941 0.3249518 1.4277006 10197915
-1.1695254 0.32495138 1.4276989 10197915
-1.1500578 0.3249512 1.4276981 10197915
-1.1305913 0.32495138 1.4276989 10197915
-1.1096261 0.3249512 1.4276981 10197915
-1.0901611 0.32495186 1.427701 10197915
-1.0706929 0.32495156 1.4276994 10197915
-1.0497265 0.32495096 1.4276972 10197915
-1.03026 0.3249512 1.4276978 10197915
-1.0107944 0.32495168 1.4277003 10197915
-0.98983043 0.32495192 1.4277011 10197915
-0.97036058 0.32495096 1.4276972 10197915
-0.95089442 0.32495135 1.4276987 10197915
-0.92993158 0.32495195 1.4277014 10197915
-0.91047144 0.32495442 1.4277123 10197915
-0.89100355 0.32495424 1.4277115 10197915
-0.87003803 0.32495397 1.4277102 10197915
-0.8490743 0.32495436 1.4277118 10197915
-0.82960755 0.32495463 1.427713 10197915
-0.81013978 0.32495442 1.4277122 10197915
-0.78917474 0.3249543 1.4277117 10197915
-0.76970762 0.32495439 1.427712 10197915
-0.75024182 0.32495502 1.4277147 10197915
-0.72927517 0.32495421 1.4277112 10197915
-0.70980734 0.32495397 1.4277102 10197915
-0.690341 0.32495442 1.4277122 10197915
-0.66937655 0.3249546 1.4277132 10197915
-0.6499086 0.3249543 1.4277118 10197915
-0.63044232 0.3249549 1.4277142 10197915
-0.6094777 0.32495496 1.4277146 10197915
-0.59001017 0.32495487 1.427714 10197915
-0.5705421 0.32495436 1.4277121 10197915
-0.5495773 0.32495445 1.4277122 10197915
-0.53011 0.32495448 1.4277124 10197915
-0.51064259 0.32495436 1.4277118 10197915
-0.48967811 0.32495457 1.4277128 10197915
-0.47021055 0.32495442 1.4277123 10197915
-0.45074362 0.32495472 1.4277134 10197915
-0.42977926 0.32495505 1.4277149 10197915
-0.41031179 0.32495496 1.4277145 10197915
-0.39084315 0.32495388 1.4277098 10197915
-0.3698785 0.324954 1.4277103 10197915
-0.35041213 0.32495484 1.427714 10197915
-0.33094457 0.3249546 1.427713 10197915
-0.30997998 0.32495481 1.4277141 10197915
-0.28901505 0.32495475 1.4277135 10197915
-0.26954785 0.3249549 1.4277143 10197915
-0.25008062 0.32495505 1.4277151 10197915
-0.22911525 0.3249543 1.4277117 10197915
-0.20964807 0.32495451 1.4277126 10197915
-0.1901807 0.32495445 1.4277123 10197915
-0.17071335 0.32495436 1.4277118 10197915
0.076371975 0.32495531 1.4277159 10197915
0.089849472 0.32495558 1.4277172 10197915
0.10931665 0.32495496 1.4277146 10197915
0.13028146 0.3249549 1.4277143 10197915
0.14974886 0.32495502 1.4277148 10197915
0.16921626 0.32495517 1.4277154 10197915
0.19018123 0.32495531 1.4277163 10197915
0.20964862 0.32495534 1.4277163 10197915
0.22911629 0.32495576 1.427718 10197915
0.250081 0.32495555 1.4277172 10197915
0.26954845 0.32495567 1.4277177 10197915
0.2890155 0.32495522 1.4277157 10197915
0.30998012 0.32495502 1.4277149 10197915
0.33094507 0.32495514 1.4277154 10197915
0.35041294 0.32495561 1.4277173 10197915
0.36988011 0.32495537 1.4277164 10197915
0.39084515 0.32495561 1.4277172 10197915
0.41031277 0.32495573 1.427718 10197915
0.42977995 0.32495561 1.4277173 10197915
0.45074421 0.32495514 1.4277154 10197915
0.47021165 0.3249552 1.4277154 10197915
0.48967868 0.32495496 1.4277147 10197915
0.5106445 0.32495561 1.4277172 10197915
0.53011149 0.32495531 1.4277161 10197915
0.54957896 0.3249554 1.4277165 10197915
0.57054436 0.32495573 1.427718 10197915
0.59001189 0.32495579 1.4277182 10197915
0.60947859 0.32495546 1.4277166 10197915
0.63044298 0.32495517 1.4277155 10197915
0.64991063 0.32495531 1.4277161 10197915
0.6693784 0.32495549 1.427717 10197915
0.69034326 0.32495549 1.427717 10197915
0.70981067 0.32495549 1.4277171 10197915
0.72927827 0.32495567 1.4277176 10197915
0.7502442 0.32495609 1.4277194 10197915
0.76971155 0.32495603 1.4277192 10197915
0.78917664 0.32495514 1.4277153 10197915
0.81014174 0.3249552 1.4277155 10197915
0.82961041 0.32495573 1.4277178 10197915
0.84907734 0.32495552 1.4277172 10197915
0.8700425 0.32495567 1.4277176 10197915
0.89100748 0.32495567 1.4277178 10197915
0.91047525 0.32495585 1.4277185 10197915
0.92994374 0.32495621 1.4277202 10197915
0.9509064 0.32495543 1.4277165 10197915
0.97037315 0.3249552 1.4277157 10197915
0.98984104 0.32495537 1.4277164 10197915
1.0108061 0.32495543 1.4277169 10197915
1.0302751 0.32495594 1.427719 10197915
1.0497419 0.32495579 1.4277182 10197915
1.0707072 0.32495591 1.4277188 10197915
1.0901752 0.32495606 1.4277195 10197915
1.1096421 0.32495594 1.4277189 10197915
1.130605 0.32495528 1.4277161 10197915
1.1500726 0.32495537 1.4277164 10197915
1.1695405 0.32495561 1.4277172 10197915
1.1890082 0.32495561 1.4277176 10197915
-1.2082371 0.32495248 1.4504559 10197915
-1.1897025 0.32495227 1.4472286 10197915
-1.1699921 0.32495216 1.4482688 10197915
-1.1502364 0.32495248 1.4472295 10197915
-1.1304984 0.32495263 1.4482709 10197915
-1.11077 0.32495263 1.44723 10197915
-1.0902617 0.32495192 1.4477475 10197915
-1.0697355 0.32495233 1.4482696 10197915
-1.0500516 0.3249526 1.4472302 10197915
-1.0295227 0.32495221 1.4477488 10197915
-1.0097831 0.32495257 1.4477501 10197915
-0.99004114 0.3249521 1.4477482 10197915
-0.9703005 0.32495198 1.4477477 10197915
-0.95056158 0.32495251 1.4477501 10197915
-0.93002838 0.32495448 1.4472382 10197915
-0.91036665 0.32495487 1.4482809 10197915
-0.88982886 0.32495522 1.4477619 10197915
-0.87008744 0.32495499 1.4477611 10197915
-0.85034811 0.32495552 1.4477632 10197915
-0.82984579 0.32495564 1.4472436 10197915
-0.81011039 0.32495561 1.4482843 10197915
-0.79037845 0.32495561 1.4472433 10197915
-0.76987231 0.3249549 1.4477607 10197915
-0.75013256 0.32495528 1.4477624 10197915
-0.7303915 0.32495508 1.4477614 10197915
-0.70985073 0.32495487 1.4482812 10197915
-0.69019169 0.32495531 1.447242 10197915
-0.66965169 0.32495552 1.4477632 10197915
-0.64991075 0.32495537 1.4477628 10197915
-0.63017076 0.3249557 1.4477643 10197915
-0.60962987 0.32495546 1.4472427 10197915
-0.58996928 0.32495511 1.4482821 10197915
-0.57016188 0.32495505 1.4472408 10197915
-0.55047381 0.3249552 1.4482824 10197915
-0.52994859 0.32495576 1.4477645 10197915
-0.50944382 0.32495549 1.4472429 10197915
-0.48971197 0.32495561 1.448284 10197915
-0.46997738 0.32495606 1.4472454 10197915
-0.45021644 0.32495561 1.4482843 10197915
-0.43050936 0.32495546 1.4472426 10197915
-0.40999213 0.32495525 1.4477623 10197915
-0.39025164 0.3249554 1.4477628 10197915
-0.37051073 0.32495525 1.4477621 10197915
-0.34925196 0.32495567 1.4477642 10197915
-0.32951143 0.32495585 1.4477649 10197915
-0.30977067 0.32495588 1.4477651 10197915
-0.29002997 0.32495585 1.447765 10197915
-0.2702896 0.32495636 1.4477671 10197915
-0.24976112 0.32495558 1.4472432 10197915
-0.23007599 0.32495543 1.4482834 10197915
-0.21029367 0.32495517 1.4472415 10197915
-0.19058053 0.32495573 1.4482847 10197915
-0.17234398 0.32495558 1.4471488 10197915
0.075926125 0.32495672 1.4477687 10197915
0.08959239 0.32495514 1.4477617 10197915
0.11010768 0.32495531 1.4472421 10197915
0.12981798 0.32495564 1.4482844 10197915
0.14957508 0.32495564 1.4472436 10197915
0.17006691 0.32495573 1.4477644 10197915
0.19058055 0.32495573 1.4482849 10197915
0.21029416 0.32495597 1.4472451 10197915
0.23007652 0.32495615 1.4482867 10197915
0.2497616 0.32495621 1.4472461 10197915
0.27028885 0.32495546 1.4477632 10197915
0.2900297 0.32495561 1.4477638 10197915
0.30977064 0.32495579 1.4477646 10197915
0.32951137 0.32495579 1.4477645 10197915
0.34925202 0.3249557 1.4477643 10197915
0.37051186 0.32495627 1.4477667 10197915
0.39025235 0.32495603 1.4477657 10197915
0.40999371 0.32495657 1.447768 10197915
0.43050975 0.32495582 1.4472444 10197915
0.45021659 0.32495579 1.4482849 10197915
0.46997717 0.32495582 1.4472445 10197915
0.48971254 0.32495597 1.4482859 10197915
0.5094443 0.32495579 1.447244 10197915
0.52994949 0.32495633 1.4477667 10197915
0.55047578 0.32495636 1.4482874 10197915
0.57016456 0.32495657 1.4472477 10197915
0.58997148 0.32495636 1.4482874 10197915
0.60962987 0.32495549 1.4472429 10197915
0.63017112 0.32495594 1.4477652 10197915
0.64991206 0.32495603 1.4477657 10197915
0.66965264 0.32495597 1.4477655 10197915
0.69019377 0.3249563 1.4472464 10197915
0.70985383 0.32495636 1.4482875 10197915
0.73039436 0.32495639 1.4477673 10197915
0.75013542 0.32495657 1.4477679 10197915
0.76987445 0.32495573 1.4477644 10197915
0.79037833 0.32495558 1.4472432 10197915
0.81011021 0.32495552 1.448284 10197915
0.82984549 0.32495552 1.447243 10197915
0.85034907 0.32495588 1.4477648 10197915
0.87008971 0.32495582 1.4477649 10197915
0.88983101 0.32495603 1.4477656 10197915
0.91036963 0.32495597 1.4482859 10197915
0.93003279 0.32495597 1.4472448 10197915
0.95056999 0.3249554 1.4477628 10197915
0.97031164 0.32495573 1.4477644 10197915
0.99005175 0.32495552 1.4477633 10197915
1.0097938 0.32495594 1.4477652 10197915
1.0295343 0.32495594 1.4477652 10197915
1.0500623 0.32495594 1.4472448 10197915
1.0697482 0.32495621 1.4482868 10197915
1.0902764 0.32495624 1.4477665 10197915
1.1107814 0.32495597 1.4472451 10197915
1.130509 0.32495561 1.4482844 10197915
1.1502471 0.32495558 1.4472432 10197915
1.1700046 0.32495567 1.4482844 10197915
1.1897159 0.32495591 1.4472446 10197915
1.2082503 0.32495597 1.4504716 10197915
-1.2258887 0.3249529 1.4683039 10197915
-1.2104884 0.32495299 1.4683042 10197915
-1.1904666 0.32495275 1.4683031 10197915
-1.170447 0.32495308 1.4683045 10197915
-1.1504277 0.32495347 1.4683062 10197915
-1.1304046 0.32495284 1.4683033 10197915
-1.1103839 0.32495281 1.4683034 10197915
-1.0903636 0.32495305 1.4683043 10197915
-1.0703435 0.32495323 1.4683052 10197915
-1.0503235 0.32495347 1.4683062 10197915
-1.0303015 0.32495308 1.4683045 10197915
-1.0102791 0.32495254 1.4683022 10197915
-0.99026018 0.32495314 1.468305 10197915
-0.97024089 0.32495371 1.4683075 10197915
-0.95022535 0.32495552 1.4683157 10197915
-0.93020505 0.32495573 1.4683164 10197915
-0.91018456 0.32495594 1.4683174 10197915
-0.8901636 0.32495594 1.4683175 10197915
-0.87014276 0.32495597 1.4683176 10197915
-0.85012275 0.32495636 1.4683194 10197915
-0.83010203 0.32495645 1.4683198 10197915
-0.81008106 0.32495651 1.46832 10197915
-0.7900573 0.32495531 1.4683149 10197915
-0.77003711 0.32495567 1.4683162 10197915
-0.75001705 0.32495609 1.4683181 10197915
-0.72999567 0.32495588 1.4683172 10197915
-0.70997494 0.32495597 1.4683177 10197915
-0.6899541 0.32495609 1.4683181 10197915
-0.66993463 0.3249568 1.4683212 10197915
-0.64991277 0.32495639 1.4683194 10197915
-0.62989074 0.32495588 1.4683173 10197915
-0.60986888 0.32495537 1.468315 10197915
-0.58984935 0.32495618 1.4683186 10197915
-0.56982833 0.32495618 1.4683186 10197915
-0.54980743 0.32495621 1.4683187 10197915
-0.52978647 0.32495624 1.4683189 10197915
-0.5097661 0.32495663 1.4683206 10197915
-0.48974514 0.32495669 1.4683208 10197915
-0.46972379 0.32495645 1.46832 10197915
-0.44970179 0.32495579 1.4683167 10197915
-0.42968109 0.32495594 1.4683174 10197915
-0.40966025 0.32495606 1.468318 10197915
-0.38963938 0.32495615 1.4683186 10197915
-0.36961865 0.32495642 1.4683195 10197915
-0.3495979 0.32495663 1.4683208 10197915
-0.32957682 0.32495663 1.4683205 10197915
-0.30955571 0.32495648 1.46832 10197915
-0.28953439 0.32495615 1.4683185 10197915
-0.26951358 0.32495636 1.4683195 10197915
-0.24949241 0.32495615 1.4683185 10197915
-0.22947147 0.32495624 1.4683191 10197915
-0.20945053 0.32495636 1.4683194 10197915
-0.18942957 0.32495645 1.4683198 10197915
-0.17248896 0.32495686 1.4683218 10197915
0.07700365 0.3249554 1.4683151 10197915
0.089324363 0.32495588 1.4683174 10197915
0.10934532 0.32495585 1.468317 10197915
0.12936637 0.324956 1.4683179 10197915
0.14938751 0.32495636 1.4683192 10197915
0.16940846 0.32495618 1.4683186 10197915
0.18942955 0.32495636 1.4683195 10197915
0.20945056 0.32495639 1.4683195 10197915
0.22947152 0.32495633 1.4683192 10197915
0.24949224 0.32495597 1.4683175 10197915
0.26951325 0.32495594 1.4683176 10197915
0.28953418 0.32495591 1.4683175 10197915
0.30955568 0.32495645 1.46832 10197915
0.32957661 0.32495633 1.4683194 10197915
0.34959763 0.32495642 1.4683197 10197915
0.3696188 0.32495654 1.4683204 10197915
0.38963979 0.32495648 1.46832 10197915
0.40966043 0.32495621 1.4683186 10197915
0.42968133 0.32495609 1.4683183 10197915
0.44970211 0.32495594 1.4683175 10197915
0.46972352 0.32495627 1.4683189 10197915
0.4897449 0.32495654 1.4683203 10197915
0.50976557 0.32495633 1.4683192 10197915
0.52978688 0.32495648 1.46832 10197915
0.54980838 0.32495674 1.4683212 10197915
0.56982988 0.32495704 1.4683223 10197915
0.58984905 0.324956 1.4683179 10197915
0.60987025 0.32495612 1.4683183 10197915
0.62989205 0.32495651 1.4683201 10197915
0.6499126 0.32495627 1.4683191 10197915
0.66993415 0.32495657 1.4683201 10197915
0.68995506 0.32495651 1.4683203 10197915
0.70997661 0.32495674 1.4683211 10197915
0.72999835 0.32495704 1.4683226 10197915
0.75001919 0.32495698 1.4683222 10197915
0.77003795 0.32495603 1.468318 10197915
0.79006004 0.32495645 1.4683198 10197915
0.81008142 0.32495657 1.4683205 10197915
0.83010232 0.32495657 1.4683203 10197915
0.85012364 0.32495669 1.4683208 10197915
0.87014544 0.32495695 1.4683222 10197915
0.89016682 0.3249571 1.4683228 10197915
0.9101879 0.3249571 1.4683228 10197915
0.93020791 0.32495674 1.4683212 10197915
0.9502281 0.32495645 1.4683198 10197915
0.97025007 0.32495674 1.4683212 10197915
0.9902705 0.3249566 1.4683205 10197915
1.0102919 0.32495672 1.4683212 10197915
1.030314 0.32495704 1.4683225 10197915
1.0503358 0.32495725 1.4683233 10197915
1.0703566 0.32495722 1.4683233 10197915
1.0903782 0.32495734 1.4683238 10197915
1.110397 0.32495666 1.4683207 10197915
1.1304184 0.32495677 1.4683213 10197915
1.1504391 0.32495669 1.468321 10197915
1.1704602 0.32495674 1.468321 10197915
1.1904823 0.32495704 1.4683225 10197915
1.2105049 0.3249574 1.4683242 10197915
1.2259055 0.32495737 1.4683239 10197915
-1.2470554 0.32495335 1.4942918 10197915
-1.2302601 0.32495344 1.4889672 10197915
-1.2100132 0.32495388 1.4900712 10197915
-1.189656 0.32495371 1.4889685 10197915
-1.169377 0.32495362 1.4900697 10197915
-1.1498326 0.32495365 1.489519 10197915
-1.1303089 0.32495335 1.4889671 10197915
-1.1099876 0.32495376 1.4900706 10197915
-1.0897052 0.32495373 1.4889686 10197915
-1.0701612 0.32495347 1.4895182 10197915
-1.0498515 0.3249535 1.4895184 10197915
-1.0295402 0.32495311 1.4895166 10197915
-1.0107923 0.32495305 1.4895163 10197915
-0.99048525 0.32495403 1.489521 10197915
-0.97018147 0.32495615 1.4895307 10197915
-0.94987154 0.32495627 1.4895308 10197915
-0.92956215 0.32495657 1.4895325 10197915
-0.91000134 0.32495674 1.4889826 10197915
-0.88975567 0.32495674 1.4900839 10197915
-0.8701942 0.32495669 1.4895333 10197915
-0.85065502 0.32495686 1.488983 10197915
-0.83036476 0.32495648 1.4900831 10197915
-0.81004798 0.32495621 1.4889799 10197915
-0.78972942 0.32495663 1.4900836 10197915
-0.76944298 0.32495645 1.4889811 10197915
-0.74990207 0.32495654 1.4895325 10197915
-0.73033988 0.32495701 1.4900854 10197915
-0.71009743 0.32495683 1.488983 10197915
-0.69053417 0.32495683 1.4895338 10197915
-0.67022461 0.32495713 1.4895351 10197915
-0.64991331 0.32495663 1.4895329 10197915
-0.62960148 0.32495585 1.4895293 10197915
-0.60929221 0.32495633 1.4895314 10197915
-0.59054393 0.32495615 1.4895307 10197915
-0.57023442 0.32495657 1.4895324 10197915
-0.54992419 0.32495657 1.4895326 10197915
-0.53038299 0.32495657 1.4889817 10197915
-0.51009738 0.32495677 1.4900845 10197915
-0.48977757 0.32495669 1.4889821 10197915
-0.47025248 0.32495621 1.489531 10197915
-0.44994211 0.32495612 1.4895303 10197915
-0.4296324 0.32495651 1.4895321 10197915
-0.4100709 0.32495645 1.4900829 10197915
-0.3898254 0.32495654 1.4889812 10197915
-0.3702642 0.32495674 1.4895333 10197915
-0.3499541 0.32495683 1.4895337 10197915
-0.32964402 0.32495704 1.4895347 10197915
-0.31006384 0.32495683 1.4889829 10197915
-0.28985476 0.32495627 1.4900819 10197915
-0.27027482 0.32495627 1.489531 10197915
-0.24996479 0.32495648 1.4895324 10197915
-0.22965467 0.32495669 1.4895329 10197915
-0.21011165 0.3249566 1.4889817 10197915
-0.18982941 0.32495704 1.4900856 10197915
-0.17418805 0.32495722 1.4885126 10197915
0.077467814 0.32495618 1.4871436 10197915
0.089803293 0.32495689 1.490085 10197915
0.11015979 0.32495689 1.488983 10197915
0.13043877 0.32495669 1.4900838 10197915
0.14998367 0.3249571 1.4895349 10197915
0.16950649 0.32495719 1.4889846 10197915
0.18982945 0.3249571 1.4900862 10197915
0.21011211 0.32495737 1.4889853 10197915
0.22965492 0.32495704 1.4895347 10197915
0.24996497 0.32495672 1.4895332 10197915
0.27027553 0.32495704 1.489535 10197915
0.28985551 0.3249571 1.4900857 10197915
0.3100639 0.32495686 1.4889832 10197915
0.32964447 0.32495752 1.4895368 10197915
0.34995461 0.32495731 1.4895357 10197915
0.37026486 0.32495728 1.4895357 10197915
0.38982674 0.32495758 1.4889861 10197915
0.41007173 0.3249571 1.4900858 10197915
0.42963302 0.32495695 1.4895344 10197915
0.44994351 0.3249571 1.4895351 10197915
0.47025385 0.32495716 1.4895352 10197915
0.48977849 0.32495725 1.4889848 10197915
0.51009852 0.32495752 1.4900876 10197915
0.53038466 0.32495767 1.4889865 10197915
0.54992563 0.3249574 1.4895364 10197915
0.57023638 0.32495767 1.4895376 10197915
0.59054565 0.3249571 1.489535 10197915
0.60929328 0.32495698 1.4895344 10197915
0.62960464 0.32495746 1.4895365 10197915
0.64991456 0.32495731 1.4895359 10197915
0.67022502 0.32495734 1.489536 10197915
0.69053608 0.3249577 1.4895378 10197915
0.71009928 0.3249577 1.4889868 10197915
0.73034185 0.32495788 1.4900895 10197915
0.74990505 0.32495785 1.4895383 10197915
0.76944476 0.32495719 1.4889846 10197915
0.78973079 0.32495719 1.4900862 10197915
0.81005132 0.32495752 1.4889861 10197915
0.83036804 0.32495785 1.4900892 10197915
0.85065675 0.32495749 1.4889858 10197915
0.87019712 0.32495785 1.4895382 10197915
0.88975853 0.32495779 1.4900889 10197915
0.91000515 0.32495815 1.4889889 10197915
0.92956609 0.32495788 1.4895386 10197915
0.94987506 0.32495746 1.4895365 10197915
0.9701848 0.32495728 1.4895358 10197915
0.99049646 0.32495764 1.4895376 10197915
1.0108072 0.32495782 1.4895382 10197915
1.0295542 0.32495758 1.4895369 10197915
1.0498666 0.32495815 1.4895399 10197915
1.0701767 0.32495818 1.4895396 10197915
1.0897199 0.32495815 1.4889888 10197915
1.1100023 0.32495815 1.4900905 10197915
1.1303229 0.3249574 1.4889855 10197915
1.1498464 0.32495764 1.4895372 10197915
1.1693923 0.32495788 1.4900894 10197915
1.1896714 0.32495791 1.4889878 10197915
1.2100285 0.324958 1.49009 10197915
1.2302787 0.32495829 1.4889896 10197915
1.2470769 0.32495898 1.4943175 10197915
-1.2633544 0.32495317 1.5112797 10197915
-1.2490904 0.32495376 1.5112824 10197915
-1.2300698 0.324954 1.5112839 10197915
-1.2110497 0.32495445 1.5112858 10197915
-1.1904436 0.32495466 1.5112865 10197915
-1.1698341 0.32495391 1.5112833 10197915
-1.1508117 0.32495371 1.5112823 10197915
-1.1302063 0.32495412 1.5112842 10197915
-1.1095988 0.32495394 1.5112834 10197915
-1.0905783 0.3249543 1.5112852 10197915
-1.0699689 0.32495353 1.5112814 10197915
-1.0493635 0.324954 1.5112835 10197915
-1.0303432 0.32495439 1.5112854 10197915
-1.0097399 0.32495552 1.5112907 10197915
-0.98913693 0.32495686 1.5112969 10197915
-0.97011465 0.32495669 1.5112963 10197915
-0.95109159 0.32495627 1.5112942 10197915
-0.93048662 0.32495698 1.5112976 10197915
-0.90987998 0.32495716 1.5112983 10197915
-0.89085847 0.32495728 1.511299 10197915
-0.87025207 0.32495752 1.5113 10197915
-0.84964305 0.32495677 1.5112964 10197915
-0.83062249 0.32495728 1.5112988 10197915
-0.81001472 0.32495695 1.5112973 10197915
-0.78940773 0.32495698 1.5112976 10197915
-0.77038568 0.32495692 1.5112973 10197915
-0.74977982 0.32495743 1.5112997 10197915
-0.72917271 0.32495737 1.5112995 10197915
-0.71015078 0.32495737 1.5112995 10197915
-0.68954366 0.32495734 1.511299 10197915
-0.66893601 0.3249571 1.5112978 10197915
-0.64991325 0.32495666 1.5112959 10197915
-0.63089156 0.32495672 1.5112963 10197915
-0.61028475 0.3249568 1.5112966 10197915
-0.58967894 0.32495746 1.5112997 10197915
-0.57065767 0.32495782 1.5113014 10197915
-0.55005026 0.32495767 1.5113004 10197915
-0.52944303 0.32495758 1.5113001 10197915
-0.51042128 0.32495767 1.5113007 10197915
-0.48981339 0.3249571 1.5112981 10197915
-0.46920574 0.32495666 1.5112962 10197915
-0.45018494 0.32495746 1.5112996 10197915
-0.42957804 0.32495755 1.5113002 10197915
-0.40897122 0.32495776 1.511301 10197915
-0.38994864 0.32495722 1.5112985 10197915
-0.37092698 0.32495743 1.5112995 10197915
-0.3503204 0.32495785 1.5113016 10197915
-0.32971364 0.32495818 1.5113029 10197915
-0.31069091 0.32495728 1.511299 10197915
-0.29008412 0.32495761 1.5113004 10197915
-0.26947692 0.32495746 1.5112997 10197915
-0.25045487 0.32495728 1.5112988 10197915
-0.2298481 0.32495767 1.5113008 10197915
-0.20924085 0.32495737 1.5112993 10197915
-0.19021933 0.32495803 1.5113021 10197915
-0.17595308 0.32495835 1.511304 10197915
0.077672824 0.32495773 1.511301 10197915
0.090353988 0.32495734 1.5112993 10197915
0.11096113 0.32495761 1.5113004 10197915
0.12998296 0.3249574 1.5112995 10197915
0.14900489 0.32495746 1.5112997 10197915
0.16961198 0.32495755 1.5113001 10197915
0.1902194 0.32495815 1.5113028 10197915
0.20924103 0.3249577 1.5113007 10197915
0.22984788 0.32495734 1.5112993 10197915
0.25045487 0.32495725 1.5112988 10197915
0.26947722 0.32495782 1.5113014 10197915
0.29008406 0.32495755 1.5113001 10197915
0.31069127 0.3249577 1.5113009 10197915
0.32971326 0.32495782 1.5113012 10197915
0.35032061 0.32495806 1.5113027 10197915
0.3709279 0.32495815 1.5113029 10197915
0.38994971 0.32495812 1.5113028 10197915
0.40897059 0.32495725 1.5112987 10197915
0.4295781 0.32495758 1.5113003 10197915
0.45018503 0.32495749 1.5113 10197915
0.46920708 0.32495764 1.5113006 10197915
0.48981446 0.32495782 1.5113013 10197915
0.51042223 0.32495826 1.5113035 10197915
0.52944434 0.32495835 1.5113038 10197915
0.55005103 0.32495809 1.5113027 10197915
0.57065821 0.32495815 1.5113031 10197915
0.58967918 0.32495761 1.5113004 10197915
0.61028689 0.324958 1.5113022 10197915
0.63089365 0.32495782 1.5113014 10197915
0.64991635 0.32495815 1.5113029 10197915
0.66893792 0.324958 1.5113021 10197915
0.68954563 0.32495829 1.5113035 10197915
0.71015191 0.32495791 1.5113019 10197915
0.72917527 0.32495853 1.5113049 10197915
0.74978173 0.32495826 1.5113035 10197915
0.77038831 0.324958 1.5113024 10197915
0.7894097 0.32495782 1.5113014 10197915
0.81001711 0.32495794 1.511302 10197915
0.83062536 0.32495835 1.5113039 10197915
0.84964734 0.32495841 1.511304 10197915
0.87025452 0.32495847 1.5113043 10197915
0.89086181 0.3249585 1.5113047 10197915
0.90988415 0.32495859 1.5113049 10197915
0.93049031 0.32495826 1.5113035 10197915
0.95109749 0.32495829 1.5113035 10197915
0.97011805 0.32495785 1.5113015 10197915
0.98914123 0.32495826 1.5113034 10197915
1.0097477 0.32495809 1.5113027 10197915
1.0303572 0.32495883 1.5113062 10197915
1.0493783 0.32495856 1.5113049 10197915
1.0699865 0.32495883 1.5113062 10197915
1.0905935 0.32495877 1.5113059 10197915
1.1096153 0.32495877 1.5113058 10197915
1.1302172 0.32495722 1.5112985 10197915
1.1508254 0.32495761 1.5113004 10197915
1.1698457 0.32495713 1.5112983 10197915
1.1904556 0.32495788 1.5113018 10197915
1.2110622 0.32495779 1.5113012 10197915
1.2300845 0.32495788 1.5113016 10197915
1.2491072 0.32495812 1.5113028 10197915
1.2633759 0.32495868 1.5113055 10197915
-1.271005 0.32495472 1.5261765 10197915
-1.2501955 0.32495478 1.5261768 10197915
-1.2293872 0.32495522 1.526179 10197915
-1.2101761 0.32495472 1.5261765 10197915
-1.1909682 0.32495502 1.5261779 10197915
-1.1701571 0.32495466 1.5261762 10197915
-1.1493487 0.32495508 1.5261784 10197915
-1.1301398 0.32495522 1.5261788 10197915
-1.1109281 0.32495448 1.5261754 10197915
-1.090115 0.3249535 1.5261708 10197915
-1.0693072 0.32495415 1.5261737 10197915
-1.0500971 0.32495382 1.5261723 10197915
-1.0308909 0.32495478 1.5261768 10197915
-1.0100898 0.32495758 1.52619 10197915
-0.98927993 0.32495764 1.5261903 10197915
-0.97007054 0.32495764 1.5261902 10197915
-0.95086151 0.32495773 1.5261906 10197915
-0.93005222 0.32495803 1.5261918 10197915
-0.90924162 0.32495782 1.5261911 10197915
-0.89003199 0.32495773 1.5261906 10197915
-0.87082267 0.32495776 1.5261908 10197915
-0.85001194 0.32495752 1.5261896 10197915
-0.82920271 0.32495785 1.5261912 10197915
-0.80999333 0.32495779 1.5261909 10197915
-0.7907846 0.32495806 1.5261921 10197915
-0.76997417 0.32495791 1.5261916 10197915
-0.74916428 0.324958 1.5261918 10197915
-0.72995645 0.32495868 1.5261952 10197915
-0.71074557 0.324958 1.5261918 10197915
-0.68993312 0.32495689 1.5261866 10197915
-0.66912341 0.32495704 1.5261874 10197915
-0.64991373 0.32495686 1.5261865 10197915
-0.63070518 0.32495722 1.5261884 10197915
-0.60989505 0.32495719 1.526188 10197915
-0.5890851 0.32495725 1.5261885 10197915
-0.56987643 0.32495764 1.5261904 10197915
-0.55066663 0.32495734 1.5261889 10197915
-0.52985698 0.32495758 1.52619 10197915
-0.50904584 0.32495692 1.5261869 10197915
-0.48983714 0.32495734 1.5261889 10197915
-0.47062799 0.32495743 1.5261893 10197915
-0.44981787 0.32495737 1.5261891 10197915
-0.42900738 0.3249571 1.5261878 10197915
-0.40979877 0.32495764 1.5261902 10197915
-0.39058974 0.32495785 1.5261912 10197915
-0.36977986 0.32495806 1.5261921 10197915
-0.34896937 0.32495776 1.5261908 10197915
-0.32975984 0.32495749 1.5261897 10197915
-0.31055054 0.32495752 1.5261897 10197915
-0.28974006 0.32495707 1.5261877 10197915
-0.26893017 0.32495728 1.5261885 10197915
-0.24972136 0.32495794 1.5261916 10197915
-0.23051186 0.3249577 1.5261904 10197915
-0.20970204 0.32495815 1.5261927 10197915
-0.18889172 0.32495776 1.5261909 10197915
-0.17608586 0.32495844 1.5261941 10197915
0.078438073 0.32495773 1.5261906 10197915
0.089643657 0.32495826 1.5261933 10197915
0.10885312 0.32495859 1.5261947 10197915
0.12966339 0.32495883 1.5261959 10197915
0.15047343 0.32495856 1.5261946 10197915
0.16968282 0.32495859 1.5261949 10197915
0.18889235 0.32495886 1.5261959 10197915
0.2097019 0.32495791 1.5261915 10197915
0.23051216 0.32495812 1.5261925 10197915
0.24972177 0.32495844 1.5261941 10197915
0.26893136 0.32495871 1.5261954 10197915
0.28974155 0.32495877 1.5261955 10197915
0.31055167 0.32495868 1.526195 10197915
0.32976085 0.32495853 1.5261942 10197915
0.34897092 0.32495916 1.5261974 10197915
0.36978084 0.32495895 1.5261962 10197915
0.39059055 0.32495853 1.5261945 10197915
0.40979984 0.3249585 1.5261942 10197915
0.42900968 0.32495883 1.5261959 10197915
0.44981965 0.32495865 1.5261952 10197915
0.47062966 0.32495859 1.5261947 10197915
0.48984003 0.32495925 1.5261978 10197915
0.509049 0.32495895 1.5261964 10197915
0.5298596 0.32495919 1.5261974 10197915
0.55066925 0.32495889 1.526196 10197915
0.56987607 0.3249574 1.5261892 10197915
0.58908588 0.32495773 1.5261906 10197915
0.60989654 0.32495803 1.5261919 10197915
0.63070649 0.32495794 1.5261916 10197915
0.64991623 0.32495812 1.5261925 10197915
0.66912562 0.32495812 1.5261925 10197915
0.68993658 0.32495853 1.5261945 10197915
0.7107473 0.32495877 1.5261956 10197915
0.72995615 0.32495859 1.5261946 10197915
0.74916476 0.32495824 1.526193 10197915
0.76997393 0.32495782 1.5261911 10197915
0.79078501 0.32495821 1.526193 10197915
0.80999428 0.32495818 1.526193 10197915
0.8292039 0.32495829 1.5261935 10197915
0.85001504 0.32495871 1.5261952 10197915
0.87082475 0.3249585 1.5261942 10197915
0.89003509 0.32495883 1.5261959 10197915
0.90924436 0.3249588 1.5261956 10197915
0.93005323 0.32495838 1.5261936 10197915
0.95086282 0.32495815 1.5261927 10197915
0.97007293 0.32495841 1.5261937 10197915
0.98928291 0.32495865 1.5261949 10197915
1.010092 0.32495832 1.5261934 10197915
1.0309042 0.32495892 1.5261961 10197915
1.0501133 0.32495889 1.526196 10197915
1.0693228 0.32495889 1.526196 10197915
