# .PCD v0.7 - Point Cloud Data file format
VERSION 0.7
FIELDS x y z rgb
SIZE 4 4 4 4
TYPE F F F U
COUNT 1 1 1 1
WIDTH 1140
HEIGHT 1
VIEWPOINT 0 0 0 1 0 0 0
POINTS 1140
DATA ascii
0.31499854 -0.34453043 0.90955454 6684672
-0.50167048 -0.32981265 0.90275705 6684672
-0.49357066 -0.33015475 0.91213566 6684672
0.31499821 -0.32976416 0.90955353 6684672
-0.50159425 -0.30942628 0.9028452 6684672
-0.4935706 -0.31041098 0.91213554 6684672
0.31499794 -0.31007594 0.90955287 6684672
-0.50159425 -0.28988352 0.90284514 6684672
-0.49365264 -0.2903859 0.91204029 6684672
0.31499788 -0.29038802 0.90955275 6684672
-0.50159425 -0.2703408 0.90284497 6684672
-0.49357054 -0.27037698 0.91213536 6684672
0.31499794 -0.27070016 0.90955299 6684672
-0.50159413 -0.25079811 0.90284508 6684672
-0.49356961 -0.25008464 0.91213638 6684672
0.314998 -0.2510123 0.90955305 6684672
-0.50151783 -0.23039998 0.90293324 6684672
-0.49357048 -0.22979243 0.91213536 6684672
0.31499809 -0.23047909 0.90918869 6684672
-0.5016703 -0.20931093 0.90275663 6684672
-0.49357045 -0.21004863 0.91213524 6684672
0.31499812 -0.21000443 0.90955323 6684672
-0.50159407 -0.18891282 0.90284485 6684672
-0.49348852 -0.19002709 0.91223001 6684672
0.31499815 -0.19031656 0.90955371 6684672
-0.50159401 -0.1693701 0.90284473 6684672
-0.49357039 -0.17001042 0.91213512 6684672
0.31499818 -0.17062867 0.90955377 6684672
-0.50159395 -0.14982738 0.90284467 6684672
-0.49354336 -0.14998993 0.9121663 6684672
0.31499827 -0.15011321 0.90991837 6684672
-0.50159389 -0.13028467 0.90284461 6684672
-0.49357039 -0.12997368 0.912135 6684672
0.31499836 -0.12960365 0.909554 6684672
-0.50159389 -0.11074197 0.90284461 6684672
-0.49359807 -0.10995968 0.91210276 6684672
0.31499839 -0.10991574 0.90955406 6684672
-0.50159389 -0.091199271 0.90284449 6684672
-0.49378285 -0.089426167 0.91188884 6684672
0.31499842 -0.090227835 0.9095543 6684672
-0.50159383 -0.070028 0.90284443 6684672
-0.49357021 -0.069103286 0.91213483 6684672
0.31499851 -0.069759011 0.90919018 6684672
-0.50159383 -0.048856735 0.90284443 6684672
-0.49357018 -0.049359478 0.91213471 6684672
0.3149986 -0.049219862 0.90955466 6684672
-0.50159377 -0.029314041 0.90284437 6684672
-0.49357012 -0.029615683 0.91213459 6684672
0.31499863 -0.02953192 0.9095549 6684672
-0.50159377 -0.009771347 0.90284425 6684672
-0.49357006 -0.0098718964 0.91213459 6684672
0.31499866 -0.0098439744 0.90955496 6684672
-0.50159371 0.0097713461 0.90284425 6684672
-0.49357006 0.0098718945 0.91213447 6684672
0.31499875 0.0098439772 0.90955502 6684672
-0.50159365 0.029314036 0.90284425 6684672
-0.49357 0.02961568 0.91213459 6684672
-0.48333248 -0.34500709 0.92399019 6883079
-0.47402683 -0.34468982 0.9347648 6750979
0.31499785 -0.34499764 0.92396492 9197913
-0.4833324 -0.33000678 0.92399031 6684672
-0.4738754 -0.32986653 0.9349401 6684672
0.31499788 -0.32999778 0.92396498 9197913
-0.48333243 -0.31000635 0.92399031 6684672
-0.47387534 -0.30962908 0.93494004 6684672
0.31499791 -0.30999801 0.92396516 9197913
-0.48333243 -0.29000592 0.92399001 6684672
-0.47402227 -0.28972474 0.93476981 6684672
0.314998 -0.28999817 0.92396539 9197913
-0.4833324 -0.27000549 0.92399007 6684672
-0.47387525 -0.26983231 0.93493998 6684672
0.31499803 -0.26999831 0.92396545 9197913
-0.48333228 -0.25000507 0.92398983 6684672
-0.4737291 -0.2499294 0.9351092 6684672
0.31499812 -0.24999851 0.92396563 9197913
-0.48333228 -0.23000465 0.92398983 6684672
-0.47387531 -0.2300285 0.9349398 6684672
0.31499815 -0.22999866 0.92396587 9197913
-0.48333228 -0.21000423 0.92398983 6684672
-0.47387525 -0.20979112 0.93493992 6684672
0.31499821 -0.2099988 0.92396593 9197913
-0.48333225 -0.1900038 0.92398977 6684672
-0.47380179 -0.18988398 0.93502492 6684672
0.31499827 -0.18999897 0.92396611 9197913
-0.48333219 -0.17000341 0.92398977 6684672
-0.47387522 -0.16998902 0.93493974 6684672
0.31499833 -0.16999911 0.92396635 9197913
-0.48333219 -0.150003 0.92398977 6684672
-0.47387484 -0.15008876 0.93494022 6684672
0.31499839 -0.14999925 0.92396647 9197913
-0.48333213 -0.1300026 0.92398953 6684672
-0.47387516 -0.13018873 0.93493968 6684672
0.31499842 -0.12999935 0.92396659 9197913
-0.48333216 -0.11000218 0.9239893 6684672
-0.47394827 -0.11030266 0.93485498 6684672
0.31499851 -0.10999949 0.92396683 9197913
-0.48333204 -0.090001784 0.92398936 6684672
-0.47402212 -0.090759501 0.93476927 6684672
0.31499854 -0.089999586 0.92396694 9197913
-0.48333204 -0.070001386 0.92398924 6684672
-0.47387514 -0.070830956 0.93493944 6684672
0.31499863 -0.069999695 0.92396712 9197913
-0.48333201 -0.050000969 0.92398924 6684672
-0.47387508 -0.050593544 0.93493944 6684672
0.31499866 -0.049999788 0.9239673 9197913
-0.48333201 -0.030000584 0.92398912 6684672
-0.47387499 -0.030356117 0.93493944 6684672
0.31499875 -0.02999988 0.92396742 9197913
-0.48333189 -0.010000194 0.92398912 6684672
-0.47387496 -0.010118705 0.93493932 6684672
0.31499878 -0.0099999616 0.92396766 9197913
-0.48333189 0.010000194 0.92398906 6684672
-0.47387496 0.010118704 0.93493932 6684672
0.31499887 0.0099999635 0.92396784 5513505
-0.48333183 0.030000577 0.92398906 6684672
-0.47387496 0.030356115 0.93493927 6684672
0.31499887 0.029999895 0.9239679 5184540
-0.47387487 0.045534167 0.93493903 6423299
-0.46420017 -0.34474084 0.94614285 6883079
-0.45651329 -0.34511411 0.95504326 6949129
-0.46424726 -0.32980746 0.94608837 6684672
-0.45664382 -0.33020085 0.95489222 6684672
-0.46434233 -0.31018552 0.94597811 6684672
-0.4565132 -0.31008866 0.95504338 6684672
-0.46420011 -0.29013219 0.94614267 6684672
-0.4565132 -0.28941602 0.95504338 6684672
-0.46420005 -0.26965228 0.94614285 6684672
-0.45638287 -0.26929125 0.95519423 6684672
-0.46405834 -0.24958503 0.94630671 6684672
-0.45651296 -0.24979039 0.95504344 6684672
-0.46415251 -0.22996311 0.94619775 6684672
-0.45664367 -0.23029913 0.95489174 6684672
-0.46424705 -0.21034808 0.94608814 6684672
-0.45651308 -0.21017113 0.95504296 6684672
-0.46434224 -0.19074009 0.94597781 6684672
-0.45651308 -0.18949856 0.95504296 6684672
-0.46419999 -0.17066592 0.94614249 6684672
-0.45638275 -0.16935796 0.95519382 6684672
-0.46419999 -0.15018602 0.94614244 6684672
-0.45665154 -0.15049525 0.95488244 6684672
-0.46419993 -0.12970607 0.9461422 6684672
-0.45651305 -0.13092624 0.95504272 6684672
-0.46419981 -0.10922617 0.9461422 6684672
-0.45651293 -0.11025368 0.95504272 6684672
-0.46405813 -0.089131191 0.94630629 6684672
-0.45651293 -0.08958111 0.9550426 6684672
-0.46435502 -0.070445403 0.94596243 6684672
-0.45651293 -0.068908542 0.95504254 6684672
-0.46419978 -0.051199753 0.9461422 6684672
-0.45651287 -0.049958691 0.95504254 6684672
-0.46419987 -0.030719854 0.94614214 6684672
-0.45651281 -0.031008843 0.95504254 6684672
-0.46419978 -0.010239951 0.9461419 6684672
-0.45651278 -0.010336279 0.95504254 6684672
-0.46419975 0.01023995 0.9461419 6684672
-0.45651278 0.010336277 0.95504242 6684672
-0.46419966 0.030719852 0.94614172 6684672
-0.45651278 0.03100883 0.9550423 6684672
-0.4463287 -0.3449944 0.96683568 6883079
-0.43699044 -0.34458473 0.97764826 6684672
-0.44642845 -0.32986599 0.96672016 6684672
-0.43732831 -0.33060095 0.97725701 6684672
-0.44632998 -0.3098065 0.96683401 6684672
-0.43722272 -0.31028882 0.97737914 6684672
-0.4464637 -0.29006332 0.96667916 6684672
-0.43711707 -0.28996918 0.97750145 6684672
-0.44636342 -0.27000067 0.96679527 6684672
-0.43732825 -0.27066627 0.97725677 6684672
-0.44652939 -0.24993958 0.96660286 6684672
-0.4372226 -0.2503466 0.97737902 6684672
-0.44639751 -0.23018359 0.96675557 6684672
-0.43722263 -0.22919054 0.9773789 6684672
-0.44629875 -0.21012765 0.96686977 6684672
-0.43722257 -0.20979747 0.97737896 6684672
-0.44639525 -0.19007251 0.96675807 6684672
-0.43722257 -0.19040443 0.9773789 6684672
-0.44666404 -0.17032616 0.9664467 6684672
-0.43722257 -0.16924839 0.97737885 6684672
-0.44639614 -0.14997058 0.9667567 6684672
-0.43722248 -0.14985533 0.97737885 6684672
-0.44612926 -0.12959577 0.96706581 6684672
-0.43722248 -0.13046227 0.97737885 6684672
-0.4464983 -0.11016013 0.96663839 6684672
-0.43722245 -0.10930622 0.97737879 6684672
-0.44655904 -0.090411343 0.96656799 6684672
-0.43722242 -0.089913175 0.97737867 6684672
-0.44639608 -0.069753721 0.96675652 6684672
-0.43722245 -0.070520133 0.97737867 6684672
-0.4461292 -0.049353324 0.96706557 6684672
-0.43722239 -0.049364094 0.97737861 6684672
-0.44667962 -0.030285651 0.96642816 6684672
-0.43722239 -0.029971054 0.97737855 6684672
-0.44639608 -0.010463057 0.96675628 6684672
-0.43722236 -0.010578019 0.97737855 6684672
-0.44639602 0.010463056 0.96675628 6684672
-0.43722233 0.010578018 0.97737843 6684672
-0.42816082 -0.34495291 0.98787183 6883079
-0.41943586 -0.34382939 0.99797422 6684672
-0.4278093 -0.32978609 0.98827887 6684672
-0.41943589 -0.32942817 0.99797422 6684672
-0.42791945 -0.30986878 0.98815131 6684672
-0.41943583 -0.30962643 0.99797422 6684672
-0.42766991 -0.28998655 0.9884401 6684672
-0.41943583 -0.28982475 0.9979741 6684672
-0.42794919 -0.26976132 0.98811674 6684672
-0.41943583 -0.27002305 0.9979741 6684672
-0.42770347 -0.24986923 0.98840111 6684672
-0.4194358 -0.25022134 0.99797404 6684672
-0.42780915 -0.22995679 0.98827881 6684672
-0.41943577 -0.23041964 0.99797398 6684672
-0.42809004 -0.20975797 0.98795331 6684672
-0.41943574 -0.21061794 0.99797392 6684672
-0.4274863 -0.18984085 0.98865241 6684672
-0.41943571 -0.19081624 0.99797386 6684672
-0.42813388 -0.17025699 0.98790246 6684672
-0.41943571 -0.16921441 0.99797386 6684672
-0.427641 -0.15002619 0.98847294 6684672
-0.41943565 -0.14941271 0.99797374 6684672
-0.4278087 -0.1301299 0.98827887 6684672
-0.41943565 -0.12961103 0.99797368 6684672
-0.42798027 -0.11024657 0.98808002 6684672
-0.41943565 -0.10980932 0.99797362 6684672
-0.42753112 -0.089683622 0.98860013 6684672
-0.41943559 -0.09000764 0.99797362 6684672
-0.42810631 -0.070164472 0.98793411 6684672
-0.41943559 -0.070205957 0.99797356 6684672
-0.42780992 -0.049914531 0.9882772 6684672
-0.41943553 -0.050404277 0.9979735 6684672
-0.42780989 -0.030305255 0.98827702 6684672
-0.41943556 -0.030602593 0.99797344 6684672
-0.42780989 -0.010695972 0.98827702 6684672
-0.4194355 -0.010800916 0.99797338 6684672
-0.42780989 0.010695972 0.98827672 6684672
-0.4194355 0.010800913 0.99797338 6684672
-0.42780986 0.030305246 0.98827684 6684672
-0.41943544 0.030602586 0.99797326 6684672
-0.41486683 -0.34519827 1.0032647 6949643
-0.41441643 -0.33006701 1.0037862 6684672
-0.41471329 -0.31018993 1.0034423 6684672
-0.41441643 -0.29023293 1.0037861 6684672
-0.41471326 -0.2703695 1.0034423 6684672
-0.41456032 -0.24982646 1.0036194 6684672
-0.41456017 -0.22991274 1.0036191 6684672
-0.41456017 -0.20999902 1.0036191 6684672
-0.41456011 -0.19008531 1.003619 6684672
-0.41456011 -0.17017159 1.0036191 6684672
-0.41456005 -0.15025789 1.003619 6684672
-0.41456005 -0.1303442 1.003619 6684672
-0.41456002 -0.11043049 1.0036188 6684672
-0.41456002 -0.090516791 1.0036188 6684672
-0.41456002 -0.070603095 1.0036188 6684672
-0.41455999 -0.050689392 1.0036187 6684672
-0.41455999 -0.030775705 1.0036187 6684672
-0.41455999 -0.010862011 1.0036187 6684672
-0.41455996 0.010862012 1.0036187 6684672
-0.41455996 0.030775698 1.0036186 6684672
-0.38592264 -0.14528802 1.2585182 6684672
-0.37118536 -0.1448514 1.2547362 6684672
-0.35027364 -0.14462884 1.2528082 6684672
-0.33027303 -0.14477818 1.2541019 6684672
-0.31315583 -0.14523438 1.2580535 6684672
-0.38592264 -0.12939712 1.2585181 6684672
-0.37161127 -0.1306144 1.2548249 6684672
-0.35027361 -0.13106988 1.2528081 6684672
-0.33027309 -0.13120523 1.2541019 6684672
-0.31315586 -0.12934935 1.2580535 6684672
-0.38592264 -0.10896601 1.2585181 6684672
-0.37080422 -0.11041778 1.2546568 6684672
-0.35027364 -0.11073146 1.2528081 6684672
-0.33027309 -0.11084578 1.254102 6684672
-0.31315583 -0.10892577 1.2580534 6684672
-0.38592261 -0.090804987 1.2585181 6684672
-0.37118524 -0.090532117 1.2547361 6684672
-0.35027358 -0.090393022 1.2528081 6684672
-0.33027306 -0.090486348 1.2541018 6684672
-0.3131558 -0.090771474 1.2580534 6684672
-0.38592261 -0.07037387 1.2585181 6684672
-0.37118524 -0.070162393 1.2547362 6684672
-0.35027358 -0.070054591 1.252808 6684672
-0.33027303 -0.070126913 1.2541018 6684672
-0.31315577 -0.070347883 1.2580533 6684672
-0.38592261 -0.049942743 1.258518 6684672
-0.37118527 -0.049792662 1.2547359 6684672
-0.35027355 -0.049716152 1.2528081 6684672
-0.330273 -0.049767494 1.2541016 6684672
-0.31315577 -0.04992431 1.2580534 6684672
-0.38592255 -0.029511616 1.258518 6684672
-0.37118524 -0.029422933 1.2547361 6684672
-0.35027355 -0.029377727 1.252808 6684672
-0.33027303 -0.029408062 1.2541018 6684672
-0.31315577 -0.029500727 1.2580533 6684672
-0.38592258 -0.0090804985 1.2585179 6684672
-0.37118524 -0.0090532107 1.2547359 6684672
-0.35027352 -0.0090392996 1.2528079 6684672
-0.330273 -0.0090486333 1.2541015 6684672
-0.31315577 -0.0090771466 1.2580532 6684672
-0.38592249 0.0090804975 1.2585177 6684672
-0.37118524 0.0090532098 1.2547357 6684672
-0.35027352 0.0090392996 1.2528079 6684672
-0.33027297 0.0090486342 1.2541015 6684672
-0.31315577 0.0090771448 1.2580532 6684672
-0.38592249 0.029511619 1.2585179 6684672
-0.37118524 0.02942293 1.2547359 6684672
-0.35027352 0.029377723 1.252808 6684672
-0.33027297 0.029408058 1.2541015 6684672
-0.31315577 0.029500719 1.2580531 6684672
-0.33027294 0.045243166 1.2541015 6684672
-0.31315571 0.045385726 1.2580529 6684672
-0.42109528 -0.14496724 1.275672 6684672
-0.40965843 -0.14646752 1.2687353 6684672
-0.3960405 -0.14566939 1.2618217 6684672
-0.30258465 -0.14560464 1.2612609 6684672
-0.29033184 -0.14631687 1.2674304 6684672
-0.27617449 -0.14499313 1.2758996 6684672
-0.42109528 -0.12885976 1.2756718 6684672
-0.40965843 -0.13044761 1.2687352 6684672
-0.3960405 -0.12973681 1.2618217 6684672
-0.30258462 -0.12967911 1.2612607 6684672
-0.29033184 -0.13031347 1.2674303 6684672
-0.27617449 -0.12888278 1.2758996 6684672
-0.42109528 -0.11045122 1.2756718 6684672
-0.40965843 -0.10985062 1.2687351 6684672
-0.3960405 -0.10925204 1.2618216 6684672
-0.30258462 -0.10920347 1.2612607 6684672
-0.29033184 -0.10973765 1.2674302 6684672
-0.27617449 -0.11047095 1.2758996 6684672
-0.42109528 -0.08974161 1.2756717 6684672
-0.41005322 -0.089920819 1.2689459 6684672
-0.39604047 -0.091043361 1.2618216 6684672
-0.30258459 -0.091002889 1.2612606 6684672
-0.28980076 -0.089974962 1.2677141 6684672
-0.27617443 -0.089757644 1.2758996 6684672
-0.42109525 -0.069032006 1.2756717 6684672
-0.40923321 -0.069522493 1.2685077 6684672
-0.39604047 -0.0705586 1.2618216 6684672
-0.30258459 -0.070527233 1.2612606 6684672
-0.29088697 -0.069606468 1.2671334 6684672
-0.27617446 -0.069044337 1.2758996 6684672
-0.42109522 -0.050623469 1.2756717 6684672
-0.40965834 -0.050348196 1.2687351 6684672
-0.39604044 -0.050073847 1.2618215 6684672
-0.30258456 -0.050051581 1.2612605 6684672
-0.29033178 -0.050296415 1.2674301 6684672
-0.27617443 -0.05063251 1.2758994 6684672
-0.42109519 -0.029913867 1.2756716 6684672
-0.40965831 -0.029751206 1.2687348 6684672
-0.39604044 -0.02958909 1.2618215 6684672
-0.30258456 -0.029575935 1.2612605 6684672
-0.29033181 -0.02972061 1.2674299 6684672
-0.27617443 -0.029919213 1.2758994 6684672
-0.42109519 -0.0092042666 1.2756715 6684672
-0.40965831 -0.0091542164 1.2687349 6684672
-0.39604038 -0.0091043347 1.2618214 6684672
-0.30258453 -0.0091002872 1.2612605 6684672
-0.29033172 -0.0091448007 1.2674299 6684672
-0.27617443 -0.0092059113 1.2758994 6684672
-0.42109516 0.0092042666 1.2756715 6684672
-0.40965831 0.0091542164 1.2687348 6684672
-0.39604038 0.0091043338 1.2618214 6684672
-0.30258453 0.0091002863 1.2612604 6684672
-0.29033172 0.0091447998 1.2674299 6684672
-0.27617443 0.0092059094 1.2758994 6684672
-0.42109513 0.029913863 1.2756714 6684672
-0.40965834 0.029751204 1.2687347 6684672
-0.39604038 0.029589087 1.2618214 6684672
-0.3025845 0.029575929 1.2612603 6684672
-0.29033175 0.029720604 1.2674298 6684672
-0.27617443 0.029919207 1.2758994 6684672
-0.42109513 0.046021327 1.2756714 6293255
-0.40965828 0.045771077 1.2687348 6684672
-0.39604038 0.045521665 1.2618213 6684672
-0.3025845 0.04550143 1.2612603 6684672
-0.29033175 0.045724001 1.2674298 6684672
-0.2761744 0.046029545 1.2758992 6293255
-0.44098309 -0.14466113 1.2935101 6684672
-0.43062726 -0.14354083 1.2834929 6684672
-0.26633647 -0.14359431 1.2839711 6684672
-0.25663534 -0.14465134 1.2934226 6684672
-0.44098309 -0.13066165 1.2935101 6684672
-0.43062729 -0.12964979 1.2834929 6684672
-0.26633647 -0.12969808 1.283971 6684672
-0.25663534 -0.13065282 1.2934226 6684672
-0.44098306 -0.10966246 1.29351 6684672
-0.43062726 -0.11112838 1.2834928 6684672
-0.26633647 -0.11116978 1.2839708 6684672
-0.25663528 -0.10965504 1.2934226 6684672
-0.44098306 -0.088663258 1.29351 6684672
-0.43062726 -0.090291813 1.2834927 6684672
-0.26633644 -0.090325452 1.2839711 6684672
-0.25663531 -0.088657267 1.2934225 6684672
-0.44098303 -0.069997303 1.2935098 6684672
-0.4306272 -0.069455236 1.2834927 6684672
-0.26633644 -0.069481112 1.2839708 6684672
-0.25663531 -0.069992572 1.2934225 6684672
-0.44098303 -0.051331356 1.2935098 6684672
-0.43062717 -0.050933842 1.2834927 6684672
-0.26633644 -0.050952811 1.2839707 6684672
-0.25663531 -0.051327888 1.2934225 6684672
-0.440983 -0.030332167 1.2935098 6684672
-0.43062717 -0.030097267 1.2834927 6684672
-0.26633644 -0.03010848 1.283971 6684672
-0.25663528 -0.030330112 1.2934225 6684672
-0.44098297 -0.0093329726 1.2935097 6684672
-0.43062714 -0.0092606982 1.2834926 6684672
-0.26633641 -0.0092641469 1.2839706 6684672
-0.25663528 -0.009332343 1.2934222 6684672
-0.44098297 0.0093329735 1.2935097 6684672
-0.43062714 0.0092606964 1.2834926 6684672
-0.26633641 0.009264146 1.2839707 6684672
-0.25663525 0.0093323411 1.2934222 6684672
-0.44098297 0.030332159 1.2935097 6684672
-0.43062711 0.030097265 1.2834926 6684672
-0.26633641 0.030108476 1.2839705 6684672
-0.25663525 0.03033011 1.2934222 6684672
-0.44098294 0.04666486 1.2935096 6293255
-0.43062711 0.046303481 1.2834924 6293255
-0.26633635 0.046320725 1.2839706 6293255
-0.25663525 0.046661705 1.2934222 6293255
-0.44902524 -0.14575687 1.303308 7280150
-0.24719723 -0.14597124 1.3052245 7081486
-0.23993216 -0.14490955 1.3169727 7478557
-0.44902521 -0.13165137 1.303308 6684672
-0.24692759 -0.13019547 1.3055745 6684672
-0.23993215 -0.12828055 1.3169727 6684672
-0.44902521 -0.11049311 1.3033079 6684672
-0.2474876 -0.10917207 1.3048476 6684672
-0.23993215 -0.10927603 1.3169726 6684672
-0.44902515 -0.089334853 1.3033078 6684672
-0.24719721 -0.089466222 1.3052243 6684672
-0.23993215 -0.090271503 1.3169726 6684672
-0.44902515 -0.070527509 1.3033078 6684672
-0.2471972 -0.070631228 1.3052243 6684672
-0.23993212 -0.071266964 1.3169725 6684672
-0.44902515 -0.051720172 1.3033077 6684672
-0.24692754 -0.050125271 1.3055743 6684672
-0.2399321 -0.049886879 1.3169725 6684672
-0.44902509 -0.030561918 1.3033077 6684672
-0.2474876 -0.029146461 1.3048475 6684672
-0.2399321 -0.028506786 1.3169724 6684672
-0.44902509 -0.0094036665 1.3033075 6684672
-0.24719717 -0.0094174957 1.3052242 6684672
-0.2399321 -0.0095022619 1.3169724 6684672
-0.44902506 0.0094036665 1.3033075 6684672
-0.24719717 0.0094174957 1.3052241 6684672
-0.2399321 0.0095022609 1.3169723 6684672
-0.44902506 0.030561915 1.3033075 6684672
-0.24748755 0.029146453 1.3048471 6684672
-0.23993208 0.028506782 1.3169723 6684672
-0.24672525 0.045340475 1.3058367 6293255
-0.46011528 -0.14304101 1.3216579 7941164
-0.23461133 -0.14364354 1.327225 6684672
-0.46011525 -0.12873691 1.3216578 7941164
-0.23461132 -0.1292792 1.327225 6684672
-0.46011525 -0.10966478 1.3216578 7941164
-0.2346113 -0.1101267 1.327225 6684672
-0.46011525 -0.090592638 1.3216577 7941164
-0.23461132 -0.090974241 1.327225 6684672
-0.46011522 -0.0715205 1.3216577 7941164
-0.23441587 -0.070509739 1.327624 6684672
-0.46011519 -0.050064348 1.3216577 7941164
-0.2348067 -0.049193203 1.3268255 6684672
-0.46011519 -0.028608197 1.3216575 7941164
-0.23461124 -0.028728705 1.3272247 6684672
-0.46011519 -0.009536067 1.3216575 7941164
-0.23461123 -0.009576234 1.3272247 6684672
-0.46011513 0.0095360652 1.3216574 5901838
-0.23461123 0.009576234 1.3272247 6684672
-0.46011513 0.028608195 1.3216574 5901838
-0.23461123 0.028728701 1.3272246 6684672
-0.22822674 -0.14568254 1.3460648 6949643
0.21561036 -0.14700794 1.3583109 7610657
0.22996664 -0.14678858 1.3562841 7280150
0.2494321 -0.14672363 1.355684 7280150
0.2669425 -0.14693953 1.3576789 7677221
-0.22822672 -0.1311143 1.3460647 6684672
0.21535064 -0.13095292 1.3583899 6684672
0.22996663 -0.13210972 1.3562843 6684672
0.24943212 -0.13205126 1.3556843 6684672
0.2673367 -0.13131143 1.357767 6684672
-0.22822672 -0.11168994 1.3460646 6684672
0.21587008 -0.10916004 1.3582321 6684672
0.22996661 -0.11009143 1.356284 6684672
0.24943209 -0.11004273 1.355684 6684672
0.26657644 -0.10949771 1.3575971 6684672
-0.22805364 -0.090950646 1.346635 6684672
0.21561037 -0.088204756 1.3583109 6684672
0.22996661 -0.088073134 1.356284 6684672
0.2494321 -0.088034168 1.3556838 6684672
0.26694247 -0.088163711 1.3576788 6684672
-0.22839975 -0.069300137 1.3454942 6684672
0.21561036 -0.068603694 1.3583109 6684672
0.2299666 -0.068501316 1.356284 6684672
0.24943206 -0.068471014 1.3556839 6684672
0.26694247 -0.068571776 1.3576788 6684672
-0.22822668 -0.048560843 1.3460646 6684672
0.21561036 -0.049002636 1.3583107 6684672
0.22996661 -0.048929513 1.3562839 6684672
0.2494321 -0.048907876 1.3556839 6684672
0.26694244 -0.048979834 1.3576785 6684672
-0.22822666 -0.029136503 1.3460644 6684672
0.21561031 -0.029401582 1.3583107 6684672
0.22996658 -0.029357709 1.356284 6684672
0.24943206 -0.029344719 1.3556839 6684672
0.26694244 -0.029387904 1.3576785 6684672
-0.22822666 -0.0097121662 1.3460646 6684672
0.2156103 -0.0098005263 1.3583107 6684672
0.22996658 -0.0097859027 1.3562838 6684672
0.24943206 -0.0097815739 1.3556838 6684672
0.26694241 -0.0097959666 1.3576785 6684672
-0.22822666 0.0097121671 1.3460643 6684672
0.21561028 0.0098005272 1.3583107 6684672
0.22996658 0.0097859027 1.3562839 6684672
0.24943206 0.009781573 1.3556838 6684672
0.26694241 0.0097959656 1.3576784 6684672
-0.22822666 0.029136499 1.3460644 6684672
0.21561028 0.029401576 1.3583105 6684672
0.22996655 0.029357705 1.3562838 6684672
0.24943203 0.029344719 1.3556837 6684672
0.26694241 0.029387899 1.3576785 6684672
0.2156103 0.044102367 1.3583106 6684672
-0.22463495 -0.14317392 1.3685025 6881280
0.17377152 -0.14398439 1.3762493 6684672
0.1899204 -0.14306933 1.3675026 6684672
0.20577104 -0.14585705 1.3612958 7676707
0.27729231 -0.14723486 1.3604076 7941164
0.28966236 -0.14359343 1.3646848 6949129
0.31006616 -0.1438667 1.3751243 6684672
-0.22463495 -0.12836283 1.3685025 6881280
0.1737715 -0.12908944 1.3762491 6684672
0.18992035 -0.12826903 1.3675027 6684672
0.20650133 -0.12902938 1.3610741 6684672
0.27729231 -0.13005744 1.3604075 6684672
0.29055393 -0.12803626 1.3650211 6684672
0.31006613 -0.12898393 1.3751243 6684672
-0.22463493 -0.10861469 1.3685025 6881280
0.1737715 -0.10922953 1.3762491 6684672
0.18992035 -0.10853533 1.3675027 6684672
0.2062405 -0.10803141 1.3611532 6684672
0.27729228 -0.1079722 1.3604075 6684672
0.29055393 -0.10833836 1.365021 6684672
0.3100661 -0.10914025 1.3751243 6684672
-0.22463492 -0.088866562 1.3685024 6881280
0.1737715 -0.089369617 1.3762491 6684672
0.18992035 -0.088801622 1.3675027 6684672
0.2062405 -0.08838933 1.3611532 6684672
0.27729228 -0.088340893 1.3604075 6684672
0.29055393 -0.088640474 1.3650209 6684672
0.31006607 -0.089296572 1.3751243 6684672
-0.22463492 -0.06911844 1.3685024 6881280
0.1737715 -0.0695097 1.376249 6684672
0.18992035 -0.06906794 1.3675027 6684672
0.20624048 -0.06874726 1.3611531 6684672
0.27729225 -0.068709582 1.3604074 6684672
0.2905539 -0.068942592 1.3650209 6684672
0.31006607 -0.069452882 1.3751241 6684672
-0.2246349 -0.049370311 1.3685023 6881280
0.17377149 -0.049649782 1.376249 6684672
0.18992034 -0.049334239 1.3675028 6684672
0.20624048 -0.049105179 1.3611531 6684672
0.27729225 -0.049078275 1.3604074 6684672
0.29055387 -0.049244706 1.3650209 6684672
0.31006607 -0.049609199 1.3751241 6684672
-0.2246349 -0.029622186 1.3685023 6881280
0.17377149 -0.029789867 1.376249 6684672
0.18992034 -0.029600542 1.3675026 6684672
0.20624046 -0.029463109 1.3611531 6684672
0.27729225 -0.029446963 1.3604074 6684672
0.29055387 -0.029546823 1.3650208 6684672
0.31006607 -0.029765517 1.3751241 6684672
-0.2246349 -0.0098740617 1.3685023 6881280
0.17377149 -0.009929955 1.3762488 6684672
0.18992034 -0.0098668467 1.3675025 6684672
0.20624045 -0.009821035 1.361153 6684672
0.27729222 -0.0098156538 1.3604072 6684672
0.29055387 -0.0098489411 1.3650208 6684672
0.31006607 -0.0099218385 1.3751241 6684672
-0.22463489 0.0098740608 1.3685021 6881280
0.17377149 0.009929955 1.3762488 6684672
0.18992034 0.0098668458 1.3675025 6684672
0.20624046 0.009821035 1.3611531 6684672
0.27729222 0.0098156538 1.3604072 6684672
0.29055387 0.0098489402 1.3650206 6684672
0.31006607 0.0099218376 1.375124 6684672
-0.22463489 0.029622182 1.3685021 6881280
0.17377147 0.029789865 1.3762488 6684672
0.18992034 0.029600536 1.3675022 6684672
0.20624043 0.029463105 1.3611529 6684672
0.27729219 0.029446959 1.3604071 6684672
0.29055381 0.02954682 1.3650205 6684672
0.31006604 0.029765515 1.3751239 6684672
0.17377146 0.044684794 1.3762488 6684672
0.18992032 0.044400811 1.3675022 6684672
0.20624045 0.044194657 1.3611529 6684672
0.27729219 0.044170439 1.3604071 6684672
0.29055384 0.044320226 1.3650205 6684672
0.31006601 0.044648271 1.3751239 6684672
0.15332979 -0.14580004 1.3936037 7081486
0.1646859 -0.14472693 1.3833468 6684672
0.3283768 -0.14538185 1.3896066 6883079
0.15332979 -0.13071726 1.3936038 6684672
0.16468589 -0.12975518 1.3833467 6684672
0.3283768 -0.13034235 1.3896066 6684672
0.15332977 -0.11060692 1.3936037 6684672
0.1646859 -0.10979284 1.3833467 6684672
0.32837677 -0.11028967 1.3896065 6684672
0.15332977 -0.090496562 1.3936034 6684672
0.16468588 -0.089830503 1.3833466 6684672
0.32837677 -0.090236999 1.3896065 6684672
0.15332977 -0.070386209 1.3936034 6684672
0.16468588 -0.06986817 1.3833466 6684672
0.32837674 -0.070184328 1.3896065 6684672
0.15332976 -0.050275862 1.3936034 6684672
0.16468588 -0.049905837 1.3833466 6684672
0.32837674 -0.05013166 1.3896064 6684672
0.15332977 -0.030165518 1.3936034 6684672
0.16468588 -0.0299435 1.3833466 6684672
0.32837674 -0.030078994 1.3896061 6684672
0.15332974 -0.010055173 1.3936034 6684672
0.16468588 -0.0099811666 1.3833466 6684672
0.32837674 -0.010026333 1.3896061 6684672
0.15332974 0.010055173 1.3936033 6684672
0.16468586 0.0099811656 1.3833464 6684672
0.32837671 0.01002633 1.3896061 6684672
0.15332974 0.030165518 1.3936033 6684672
0.16468588 0.029943496 1.3833464 6684672
0.32837668 0.030078992 1.389606 6684672
0.15332973 0.04524827 1.3936033 6684672
0.16468588 0.044915244 1.3833463 6684672
0.32837668 0.045118492 1.389606 6684672
0.13694258 -0.14375055 1.4146956 6684672
0.14436521 -0.14689793 1.4040978 7280150
0.34601796 -0.14500725 1.410445 7280150
0.13766845 -0.13001981 1.4134227 6684672
0.14436521 -0.13170159 1.4040978 6684672
0.34601796 -0.12974222 1.410445 6684672
0.13797952 -0.11104097 1.412877 6684672
0.14436519 -0.11143979 1.4040977 6684672
0.34544948 -0.11078236 1.4096092 6684672
0.13766843 -0.091783546 1.4134226 6684672
0.14436519 -0.091178015 1.4040977 6684672
0.34601793 -0.091590188 1.4104449 6684672
0.13766843 -0.071387202 1.4134223 6684672
0.14436519 -0.070916235 1.4040976 6684672
0.34601793 -0.071236804 1.4104449 6684672
0.13766842 -0.050990853 1.4134223 6684672
0.14436518 -0.050654452 1.4040976 6684672
0.34601793 -0.050883431 1.4104449 6684672
0.13766842 -0.030594515 1.4134223 6684672
0.14436518 -0.030392671 1.4040976 6684672
0.3460179 -0.030530058 1.4104447 6684672
0.1376684 -0.01019817 1.4134223 6684672
0.14436516 -0.010130889 1.4040974 6684672
0.3460179 -0.010176687 1.4104446 6684672
0.1376684 0.01019817 1.4134222 6684672
0.14436516 0.010130889 1.4040974 6684672
0.34601787 0.010176686 1.4104446 6684672
0.1376684 0.030594505 1.4134222 6684672
0.14436516 0.030392665 1.4040973 6684672
0.34601784 0.030530058 1.4104446 6684672
0.1376684 0.045891762 1.4134222 6293255
0.14436516 0.045589 1.4040973 6684672
0.12896131 -0.1444459 1.4299698 6684672
0.12896129 -0.12896954 1.4299697 6684672
0.12896129 -0.10833441 1.4299695 6684672
0.12865166 -0.088841237 1.4306222 6684672
0.12927093 -0.07108099 1.4293169 6684672
0.12896129 -0.051587809 1.4299695 6684672
0.12896129 -0.030952686 1.4299695 6684672
0.12896127 -0.010317562 1.4299694 6684672
0.12896127 0.010317562 1.4299693 6684672
0.12896127 0.030952683 1.4299693 6684672
0.12896127 0.046429023 1.4299693 6293255
-0.48111764 -0.54684412 1.4575044 7280150
-0.46920225 -0.54521328 1.4531579 6883079
-0.44936091 -0.54340929 1.4483494 6684672
-0.42799899 -0.54282892 1.4468027 6684672
-0.40768439 -0.54358423 1.4488158 6684672
-0.38818341 -0.54556489 1.4540951 7147536
-0.37633738 -0.5447681 1.4589856 6684672
-0.48111761 -0.5310697 1.4575043 6684672
-0.46920219 -0.52948594 1.4531578 6684672
-0.44999486 -0.52957815 1.4484484 6684672
-0.42799893 -0.52978009 1.4468026 6684672
-0.40696988 -0.52906507 1.4489306 6684672
-0.38818333 -0.52982742 1.4540949 6684672
-0.37633735 -0.53160942 1.4589854 6684672
-0.48111752 -0.51003718 1.457504 6684672
-0.46920204 -0.50851613 1.4531573 6684672
-0.44881141 -0.51150525 1.4482634 6684672
-0.42799887 -0.51151174 1.4468024 6684672
-0.40839869 -0.51106226 1.4487008 6684672
-0.38818333 -0.50884408 1.4540944 6684672
-0.37633729 -0.51055551 1.4589852 6684672
-0.48111749 -0.48900464 1.4575038 6684672
-0.46978346 -0.48917729 1.4533336 6684672
-0.44936073 -0.49115819 1.448349 6684672
-0.42799881 -0.49063367 1.4468021 6684672
-0.40768421 -0.49131632 1.4488155 6684672
-0.38749266 -0.48905769 1.4543152 6684672
-0.37633723 -0.4895016 1.4589851 6684672
-0.48111737 -0.4679721 1.4575037 6684672
-0.46867344 -0.47105113 1.4529967 6684672
-0.44936073 -0.47025779 1.4483486 6684672
-0.42799878 -0.46975553 1.446802 6684672
-0.40768421 -0.47040918 1.4488151 6684672
-0.38887382 -0.47092643 1.4538738 6684672
-0.37633717 -0.46844769 1.4589849 6684672
-0.48111734 -0.44956866 1.4575034 6684672
-0.46920192 -0.45084918 1.4531569 6684672
-0.44936064 -0.44935739 1.4483485 6684672
-0.42799869 -0.44887745 1.4468019 6684672
-0.40768412 -0.44950208 1.4488146 6684672
-0.38818318 -0.45113996 1.4540942 6684672
-0.37633717 -0.45002553 1.4589847 6684672
-0.48111728 -0.43116525 1.4575033 6684672
-0.46920189 -0.42987934 1.4531566 6684672
-0.44936061 -0.42845699 1.4483484 6684672
-0.42799863 -0.42799938 1.4468015 6684672
-0.40768406 -0.42859486 1.4488146 6684672
-0.38818315 -0.43015665 1.4540939 6684672
-0.37633711 -0.43160337 1.4589844 6684672
-0.48111722 -0.41013268 1.4575031 6684672
-0.4692018 -0.40890959 1.4531565 6684672
-0.4499945 -0.40939263 1.4484473 6684672
-0.42799863 -0.40973103 1.4468015 6684672
-0.40711382 -0.40952969 1.4489326 6684672
-0.38818312 -0.40917334 1.4540937 6684672
-0.37633705 -0.41054949 1.4589843 6684672
-0.48111713 -0.38910019 1.4575028 6684672
-0.4697299 -0.38869667 1.4533166 6684672
-0.44881111 -0.39133507 1.4482621 6684672
-0.42799854 -0.39146274 1.4468014 6684672
-0.40817806 -0.39145651 1.4487118 6684672
-0.38769934 -0.38875434 1.4542454 6684672
-0.37633699 -0.38949561 1.458984 6684672
-0.4811171 -0.36806771 1.4575027 6684672
-0.46862072 -0.37059361 1.4529798 6684672
-0.44936049 -0.37098089 1.4483479 6684672
-0.42799848 -0.3705847 1.4468011 6684672
-0.40768388 -0.37110031 1.448814 6684672
-0.38874114 -0.37059087 1.4539182 6684672
-0.37633693 -0.36844176 1.4589839 6684672
-0.48131871 -0.35243994 1.4581136 6684672
-0.46886712 -0.35387447 1.4553849 6684672
-0.44952181 -0.35384849 1.4511838 6684672
-0.42917916 -0.35327372 1.4507914 6684672
-0.40861657 -0.35360077 1.4521242 6684672
-0.38859704 -0.35446224 1.4556359 6684672
-0.37633687 -0.35265136 1.4589837 6684672
0.12275053 -0.14625594 1.4478887 6684672
0.3619535 -0.14582299 1.4436026 9197913
0.12275053 -0.13058567 1.4478887 6684672
0.3619535 -0.13019909 1.4436026 9197913
0.12275052 -0.10969195 1.4478886 6684672
0.3619535 -0.10936724 1.4436026 9197913
0.12275052 -0.08879824 1.4478886 6684672
0.36195347 -0.088535376 1.4436024 9197913
0.12275052 -0.067904539 1.4478885 6684672
0.36195347 -0.070307501 1.4436024 9197913
0.1227505 -0.049622547 1.4478885 6684672
0.36195344 -0.052079629 1.4436023 9197913
0.12275051 -0.031340554 1.4478885 6684672
0.36195344 -0.031247776 1.4436023 9197913
0.1227505 -0.010446851 1.4478884 6684672
0.36195344 -0.010415926 1.4436023 9197913
0.1227505 0.010446851 1.4478884 6684672
0.36195341 0.010415925 1.4436022 5184540
0.36195341 0.031247776 1.4436022 5184540
-0.50298119 -0.5454042 1.4701653 7081486
-0.49073175 -0.54349518 1.4626423 6684672
-0.36704883 -0.54398054 1.4639486 6684672
-0.35344148 -0.5447892 1.4732908 6883336
-0.5042119 -0.53074366 1.4711756 6684672
-0.49119091 -0.52888304 1.4628876 6684672
-0.36662561 -0.52893686 1.4641744 6684672
-0.35384694 -0.53066003 1.472958 6684672
-0.50421184 -0.50951385 1.4711754 6684672
-0.49027237 -0.5106172 1.4623966 6684672
-0.36751422 -0.51061946 1.4636996 6684672
-0.35344288 -0.51024598 1.4732894 6684672
-0.50473928 -0.48956272 1.4716082 6684672
-0.4907316 -0.49072847 1.462642 6684672
-0.36704871 -0.49116671 1.4639481 6684672
-0.35303944 -0.48981857 1.4736202 6684672
-0.50421166 -0.46970245 1.471175 6684672
-0.49073154 -0.46962181 1.4626417 6684672
-0.36704865 -0.47004119 1.4639481 6684672
-0.35344207 -0.47037828 1.4732895 6684672
-0.50368416 -0.44985941 1.4707416 6684672
-0.49073142 -0.44851515 1.4626414 6684672
-0.36704862 -0.44891569 1.4639477 6684672
-0.35384676 -0.45095184 1.4729571 6684672
-0.5042116 -0.42990214 1.4711746 6684672
-0.49073136 -0.4300468 1.4626412 6684672
-0.36658254 -0.42944604 1.4641964 6684672
-0.3534427 -0.43051979 1.4732885 6684672
-0.50473905 -0.40992755 1.4716074 6684672
-0.49073133 -0.41157851 1.4626411 6684672
-0.36747217 -0.41116095 1.4637208 6684672
-0.35344264 -0.40925947 1.4732882 6684672
-0.50421149 -0.39009076 1.4711742 6684672
-0.49073124 -0.39047185 1.462641 6684672
-0.36704841 -0.39082053 1.4639472 6684672
-0.35303923 -0.38880941 1.4736193 6684672
-0.50368392 -0.37027118 1.4707409 6684672
-0.49073118 -0.36936522 1.4626406 6684672
-0.36704841 -0.36969507 1.4639469 6684672
-0.35388622 -0.37036553 1.4729236 6684672
-0.50421137 -0.35559785 1.4711738 6684672
-0.49073112 -0.35353523 1.4626405 6684672
-0.46593332 -0.34351593 1.4626713 6684672
-0.45065784 -0.34462804 1.46966 6684672
-0.43430516 -0.34638247 1.4771419 6684672
-0.36704838 -0.35385096 1.4639467 6684672
-0.35344246 -0.35610878 1.4732876 6684672
-0.46731353 -0.33070841 1.4620397 6684672
-0.45065781 -0.32872209 1.4696602 6684672
-0.4343051 -0.33039558 1.4771419 6684672
-0.46685341 -0.31123897 1.4622501 6684672
-0.45012075 -0.3093996 1.4699057 6684672
-0.43430507 -0.30907968 1.4771417 6684672
-0.46685341 -0.29013801 1.4622499 6684672
-0.45112312 -0.29103467 1.469447 6684672
-0.43383512 -0.28940326 1.4773567 6684672
-0.46685338 -0.26903704 1.4622498 6684672
-0.45065767 -0.2704004 1.4696599 6684672
-0.43473226 -0.27101323 1.476946 6684672
-0.46643507 -0.24868681 1.462441 6684672
-0.45065767 -0.24919248 1.4696598 6684672
-0.43430498 -0.2504611 1.4771414 6684672
-0.46731344 -0.23049323 1.4620392 6684672
-0.4499934 -0.22916624 1.4699637 6684672
-0.43430495 -0.22914523 1.4771414 6684672
-0.46685329 -0.21100943 1.4622498 6684672
-0.45132184 -0.21089706 1.4693557 6684672
-0.43383497 -0.20945716 1.4773562 6684672
-0.46685326 -0.18990846 1.4622496 6684672
-0.45065761 -0.19087082 1.4696594 6684672
-0.43473214 -0.19108938 1.4769458 6684672
-0.46685323 -0.17672037 1.4622494 6684672
-0.45065758 -0.1776159 1.4696593 6684672
-0.43430492 -0.1785201 1.477141 6684672
0.11917308 -0.1430077 1.4681666 6684672
0.11917308 -0.12976624 1.4681667 6684672
0.11917308 -0.11122821 1.4681666 6684672
0.11917307 -0.090041876 1.4681665 6684672
0.11917307 -0.068855546 1.4681665 6684672
0.11917307 -0.050317515 1.4681664 6684672
0.11917306 -0.031779483 1.4681664 6684672
0.11917306 -0.010593161 1.4681664 6684672
0.11917305 0.010593159 1.4681662 6684672
-0.52392197 -0.54272944 1.489504 6684672
-0.51535094 -0.54472327 1.4803195 6684672
-0.34233764 -0.54560661 1.48272 7280150
-0.33383191 -0.54383051 1.4925259 6684672
-0.52392298 -0.52929658 1.4895068 6684672
-0.51535094 -0.52870196 1.4803194 6684672
-0.34233758 -0.52955937 1.4827199 6684672
-0.33352962 -0.5289591 1.4928939 6684672
-0.52392447 -0.51049042 1.489511 6684672
-0.51535082 -0.51001042 1.480319 6684672
-0.34202504 -0.5094108 1.4830211 6684672
-0.3341341 -0.51024169 1.4921576 6684672
-0.52392608 -0.48899764 1.4895157 6684672
-0.51535082 -0.49131888 1.480319 6684672
-0.34264994 -0.49086767 1.4824182 6684672
-0.33383179 -0.48998573 1.4925253 6684672
-0.52392668 -0.47019061 1.4895176 6684672
-0.5153507 -0.46995711 1.4803188 6684672
-0.34233743 -0.47071922 1.4827193 6684672
-0.3335295 -0.46971521 1.4928933 6684672
-0.52392662 -0.45138294 1.4895172 6684672
-0.51535064 -0.44859535 1.4803185 6684672
-0.34233743 -0.44932279 1.4827189 6684672
-0.33413395 -0.45102701 1.492157 6684672
-0.52392656 -0.42988843 1.489517 6684672
-0.51535058 -0.42990384 1.4803184 6684672
-0.34202486 -0.42915803 1.4830202 6684672
-0.33383167 -0.43075657 1.4925247 6684672
-0.5239265 -0.40839398 1.4895167 6684672
-0.51535046 -0.41121233 1.4803182 6684672
-0.34264976 -0.41064754 1.4824172 6684672
-0.33383161 -0.40921861 1.4925246 6684672
-0.52392638 -0.3895863 1.4895166 6684672
-0.51535046 -0.38985059 1.480318 6684672
-0.34233725 -0.39048278 1.4827186 6684672
-0.33352932 -0.3889282 1.4928925 6684672
-0.52392638 -0.37077862 1.4895165 6684672
-0.51535034 -0.36848885 1.4803178 6684672
-0.34233719 -0.36908638 1.4827181 6684672
-0.3341338 -0.37027994 1.492156 6684672
-0.52392626 -0.3546578 1.4895163 6684672
-0.51151705 -0.35125047 1.480817 6684672
-0.48990253 -0.34801495 1.484152 6684672
-0.42327198 -0.34663782 1.482036 6684672
-0.40930808 -0.34585771 1.4863791 6684672
-0.39089438 -0.34733063 1.4904444 6684672
-0.368662 -0.34996179 1.4810135 6684672
-0.34578693 -0.35203135 1.482226 6684672
-0.33383149 -0.35537395 1.492524 6684672
-0.48660907 -0.33067909 1.4904289 6684672
-0.42252237 -0.33160135 1.4825326 6684672
-0.40770724 -0.32960278 1.4893111 6684672
-0.39147028 -0.32937941 1.4967397 6684672
-0.48660904 -0.31185997 1.4904289 6684672
-0.42252231 -0.31020769 1.4825326 6684672
-0.40873626 -0.31098911 1.4888401 6684672
-0.39098775 -0.30944484 1.4969604 6684672
-0.48660898 -0.29035231 1.4904288 6684672
-0.42252225 -0.28881407 1.4825325 6684672
-0.40825853 -0.29008541 1.4890586 6684672
-0.39190882 -0.29080525 1.496539 6684672
-0.48660898 -0.26884472 1.4904287 6684672
-0.42252228 -0.2700946 1.4825325 6684672
-0.4077816 -0.26917294 1.4892769 6684672
-0.39147016 -0.26998308 1.4967395 6684672
-0.48660895 -0.2500256 1.4904286 6684672
-0.42252222 -0.25137514 1.4825324 6684672
-0.40880865 -0.25057811 1.4888066 6684672
-0.39103195 -0.24915291 1.4969399 6684672
-0.48660892 -0.23120645 1.4904284 6684672
-0.42252219 -0.22998153 1.4825323 6684672
-0.40825841 -0.23099388 1.4890583 6684672
-0.39195216 -0.23053011 1.4965189 6684672
-0.48660886 -0.20969886 1.4904284 6684672
-0.42252219 -0.20858787 1.4825321 6684672
-0.40825838 -0.20950609 1.489058 6684672
-0.3914701 -0.21058674 1.4967393 6684672
-0.48660883 -0.18819126 1.4904283 6684672
-0.42252219 -0.18986844 1.482532 6684672
-0.40757647 -0.18920708 1.4893698 6684672
-0.39147007 -0.1889881 1.496739 6684672
-0.42252213 -0.17917161 1.482532 6684672
-0.41303152 -0.1796964 1.4868742 6684672
-0.53339469 -0.54693258 1.5010395 7941164
-0.32546049 -0.54515034 1.5036081 7280150
-0.31956762 -0.54626942 1.5142117 7941164
-0.53339589 -0.53068829 1.501043 6684672
-0.3257454 -0.53026277 1.5031345 6684672
-0.31956756 -0.5298813 1.5142114 6684672
-0.53339756 -0.50902915 1.5010477 6684672
-0.32546043 -0.50989735 1.5036079 6684672
-0.31956756 -0.5107618 1.5142113 6684672
-0.53339905 -0.49007729 1.5010519 6684672
-0.32517543 -0.48951313 1.5040814 6684672
-0.3195675 -0.4916423 1.5142112 6684672
-0.53340054 -0.4711253 1.501056 6684672
-0.32574525 -0.47061259 1.5031338 6684672
-0.31956744 -0.46979147 1.5142109 6684672
-0.5334022 -0.44946581 1.5010607 6684672
-0.32546026 -0.45022833 1.5036073 6684672
-0.31956741 -0.450672 1.5142107 6684672
-0.53340364 -0.43051359 1.5010648 6684672
-0.32517529 -0.42982531 1.5040807 6684672
-0.31956738 -0.43155253 1.5142106 6684672
-0.53340518 -0.41156131 1.5010689 6684672
-0.32574514 -0.41096237 1.5031332 6684672
-0.31956735 -0.4097017 1.5142103 6684672
-0.53340679 -0.38990143 1.5010736 6684672
-0.32546017 -0.39055938 1.5036067 6684672
-0.31956732 -0.39058223 1.5142102 6684672
-0.53340852 -0.36824137 1.5010784 6684672
-0.3251752 -0.3701376 1.5040801 6684672
-0.31956726 -0.37146282 1.51421 6684672
-0.53010464 -0.35114282 1.5032322 6684672
-0.51001269 -0.34995553 1.503948 6684672
-0.49644902 -0.34995589 1.5039495 6684672
-0.38180137 -0.34659982 1.5011637 6684672
-0.36849323 -0.34676602 1.5058261 6684672
-0.34995839 -0.34598893 1.5125375 6684672
-0.32898903 -0.35301346 1.5037832 6684672
-0.3195672 -0.3550747 1.5142097 6684672
-0.38180134 -0.3303529 1.5011635 6684672
-0.37010869 -0.33098543 1.506513 6684672
-0.34924731 -0.32933131 1.5160578 6684672
-0.38180131 -0.30869043 1.5011635 6684672
-0.36961949 -0.30983654 1.5067369 6684672
-0.35066038 -0.31044674 1.5154113 6684672
-0.38180128 -0.28973573 1.5011634 6684672
-0.36892128 -0.28931776 1.5070564 6684672
-0.34995386 -0.28981397 1.5157344 6684672
-0.38180125 -0.27078104 1.5011632 6684672
-0.37031764 -0.27056226 1.5064172 6684672
-0.34938255 -0.2698788 1.5159956 6684672
-0.38180125 -0.24911854 1.5011632 6684672
-0.3696194 -0.25004345 1.5067365 6684672
-0.35044888 -0.25095099 1.5155079 6684672
-0.38180122 -0.23016386 1.5011631 6684672
-0.36892125 -0.22951199 1.507056 6684672
-0.34995377 -0.22966385 1.515734 6684672
-0.38180119 -0.21120918 1.501163 6684672
-0.37031752 -0.21078189 1.506417 6684672
-0.34938246 -0.20971832 1.5159953 6684672
-0.38180116 -0.18954667 1.5011629 6684672
-0.36961934 -0.19025041 1.5067363 6684672
-0.35044879 -0.19080983 1.5155071 6684672
-0.31390312 -0.54521579 1.5265565 7280150
-0.31365615 -0.53011698 1.5272685 6684672
-0.31390303 -0.50940967 1.5265561 6684672
-0.31414992 -0.48873061 1.5258437 6684672
-0.31365606 -0.46950898 1.5272682 6684672
-0.31414986 -0.45019791 1.5258435 6684672
-0.313656 -0.43094033 1.5272677 6684672
-0.31390285 -0.41027927 1.5265552 6684672
-0.31414971 -0.38964653 1.5258428 6684672
-0.31365585 -0.37033242 1.5272672 6684672
-0.54286331 -0.34996775 1.5276855 6684672
-0.52908331 -0.34996656 1.5276804 6684672
-0.50824088 -0.34710127 1.5296544 6684672
-0.3300359 -0.34654793 1.5247641 6684672
-0.31450146 -0.35415828 1.5267775 6684672
-0.50591826 -0.3289851 1.5326357 6684672
-0.33005193 -0.33006227 1.52484 6684672
-0.50591826 -0.30963302 1.5326357 6684672
-0.32933688 -0.3093012 1.5251672 6684672
-0.5059182 -0.29028094 1.5326356 6684672
-0.33076695 -0.29031184 1.5245126 6684672
-0.50591815 -0.27092886 1.5326355 6684672
-0.3300519 -0.26955083 1.5248399 6684672
-0.50591815 -0.2488122 1.5326352 6684672
-0.33005184 -0.25029716 1.5248398 6684672
-0.50591809 -0.22946012 1.5326352 6684672
-0.33005184 -0.23104352 1.5248398 6684672
-0.50591803 -0.21010804 1.5326351 6684672
-0.33005181 -0.20903938 1.5248398 6684672
-0.50591803 -0.19075598 1.5326351 6684672
-0.33005178 -0.1897857 1.5248394 6684672
-0.32253626 -0.17918681 1.528278 6684672
-0.30761951 -0.54533648 1.5504258 7345686
-0.30761945 -0.52855647 1.5504255 6750208
-0.30761942 -0.50897968 1.5504254 6750208
-0.30761939 -0.48940292 1.5504253 6750208
-0.30761933 -0.46982613 1.5504251 6750208
-0.3076193 -0.45024943 1.5504248 6750208
-0.30779478 -0.42916867 1.5492957 6684672
-0.30744368 -0.40980333 1.5515534 6750208
-0.30779472 -0.39004371 1.5492953 6684672
-0.30744362 -0.37062138 1.5515529 6750208
-0.54594827 -0.34996685 1.5521246 7478557
-0.52915365 -0.34996939 1.5521358 6684672
-0.51795542 -0.34996989 1.5521381 6684672
-0.32196906 -0.34996638 1.5521225 6684672
-0.30960268 -0.35343039 1.55099 6684672
-0.54627156 -0.34995523 1.57731 6684672
-0.53062332 -0.34853277 1.5773103 6684672
-0.3243593 -0.34996662 1.5773613 6684672
-0.31297809 -0.34996644 1.5773605 6684672
-0.52635294 -0.33003753 1.5773026 6684672
-0.52635288 -0.31012145 1.5773025 6684672
-0.52635288 -0.29020536 1.5773023 6684672
-0.52635282 -0.2702893 1.5773023 6684672
-0.52635276 -0.25037324 1.5773021 6684672
-0.52635276 -0.23045714 1.577302 6684672
-0.52635276 -0.21054108 1.577302 6684672
-0.5263527 -0.19062503 1.5773019 6684672
-0.30705124 -0.54523116 1.5908775 9394521
-0.30705121 -0.53088295 1.5908775 9394521
-0.30705053 -0.51079434 1.590874 9394521
-0.30704656 -0.4907006 1.5908533 9394521
-0.30704191 -0.47060633 1.5908294 9394521
-0.30703732 -0.45051265 1.5908054 9394521
-0.30703264 -0.43041965 1.5907812 9394521
-0.30702803 -0.4103272 1.5907573 9394521
-0.30702335 -0.39023533 1.5907332 9394521
-0.30701873 -0.3701441 1.5907091 9394521
-0.30701542 -0.35579357 1.5906919 9328985
-0.54373616 -0.34995785 1.6033933 7941164
-0.32682636 -0.3499645 1.6034237 6684672
-0.31525555 -0.34996256 1.6034149 6684672
-0.33232307 -0.34996855 1.6303908 6684672
-0.3439807 -0.34996298 1.6582344 7941164
0.03500399 -0.34615055 2.1561785 9197913
0.050299227 -0.34435621 2.1450016 6684672
0.069645077 -0.34435624 2.1450016 6684672
0.088990934 -0.34435621 2.1450016 6684672
0.11220596 -0.34435621 2.1450014 6684672
0.1315518 -0.34435621 2.1450014 6684672
0.15089767 -0.34435621 2.1450014 6684672
0.17024352 -0.34435621 2.1450014 6684672
0.18958938 -0.34435621 2.1450014 6684672
0.035003986 -0.3305932 2.1561782 8338235
0.050299227 -0.32887957 2.1450016 6684672
0.069645077 -0.32887957 2.1450016 6684672
0.088990927 -0.32887957 2.1450014 6684672
0.11220595 -0.32887951 2.1450014 6684672
0.1315518 -0.32887951 2.1450014 6684672
0.15089765 -0.32887954 2.1450014 6684672
0.17024352 -0.32887951 2.1450014 6684672
0.18958937 -0.32887954 2.1450014 6684672
0.035003986 -0.31114653 2.1561782 7941164
0.050299216 -0.30953369 2.1450014 6684672
0.069645077 -0.30953366 2.1450014 6684672
0.088990927 -0.30953369 2.1450014 6684672
0.11220595 -0.30953369 2.1450014 6684672
0.1315518 -0.30953366 2.1450014 6684672
0.15089767 -0.30953369 2.1450014 6684672
0.17024352 -0.30953366 2.1450014 6684672
0.18958937 -0.30953369 2.1450014 6684672
0.035003986 -0.29169989 2.1561782 7941164
0.050299216 -0.29018781 2.1450014 6684672
0.069645077 -0.29018781 2.1450014 6684672
0.088990927 -0.29018781 2.1450014 6684672
0.11220594 -0.29018784 2.1450014 6684672
0.1315518 -0.29018784 2.1450014 6684672
0.15089765 -0.29018781 2.1450014 6684672
0.1702435 -0.29018781 2.1450014 6684672
0.18958937 -0.29018781 2.1450012 6684672
0.035003986 -0.26836386 2.1561782 7941164
0.050299224 -0.27084196 2.1450014 6684672
0.069645077 -0.27084196 2.1450014 6684672
0.088990927 -0.27084196 2.1450014 6684672
0.11220596 -0.27084196 2.1450014 6684672
0.1315518 -0.27084196 2.1450014 6684672
0.15089764 -0.27084193 2.1450012 6684672
0.1702435 -0.27084193 2.1450012 6684672
0.18958937 -0.27084193 2.1450012 6684672
0.035003982 -0.24891721 2.156178 7941164
0.050299216 -0.25149611 2.1450014 6684672
0.06964507 -0.25149611 2.1450014 6684672
0.088990927 -0.25149608 2.1450014 6684672
0.11220594 -0.25149608 2.1450012 6684672
0.1315518 -0.25149608 2.1450012 6684672
0.15089764 -0.25149608 2.1450012 6684672
0.1702435 -0.25149608 2.1450012 6684672
0.18958935 -0.25149608 2.1450012 6684672
0.035003982 -0.22947054 2.156178 7941164
0.050299216 -0.22828105 2.1450014 6684672
0.06964507 -0.22828104 2.1450012 6684672
0.088990919 -0.22828105 2.1450012 6684672
0.11220593 -0.22828105 2.1450012 6684672
0.1315518 -0.22828107 2.1450012 6684672
0.15089764 -0.22828105 2.1450012 6684672
0.1702435 -0.22828104 2.1450012 6684672
0.18958937 -0.23215021 2.1450012 6684672
0.035003982 -0.21002388 2.156178 7941164
0.050299216 -0.20893519 2.1450012 6684672
0.069645062 -0.2089352 2.1450012 6684672
0.088990919 -0.20893519 2.1450012 6684672
0.11220594 -0.20893519 2.1450012 6684672
0.1315518 -0.2089352 2.1450012 6684672
